ncols         510
nrows         36
xllcorner     335939.980818
yllcorner     4096942.47307
cellsize      90
NODATA_value  -9999
-9999 -9999 -9999 -9999 -9999 -9999 -9999 -9999 -9999 -9999 -9999 -9999 -9999 -9999 -9999 -9999 -9999 -9999 -9999 -9999 -9999 -9999 -9999 -9999 -9999 -9999 -9999 -9999 -9999 -9999 -9999 -9999 -9999 -9999 -9999 -9999 -9999 -9999 -9999 -9999 -9999 -9999 -9999 -9999 -9999 -9999 -9999 -9999 -9999 -9999 -9999 -9999 -9999 -9999 -9999 -9999 -9999 -9999 -9999 -9999 -9999 -9999 -9999 -9999 -9999 -9999 -9999 -9999 -9999 -9999 -9999 -9999 -9999 -9999 -9999 -9999 -9999 -9999 -9999 -9999 -9999 -9999 -9999 -9999 -9999 -9999 1003 986 979 947 931 900 884 866 887 884 890 890 903 935 934 926 899 870 811 741 711 670 650 650 660 628 581 518 485 409 360 338 343 393 410 446 471 522 546 560 577 615 605 620 630 646 654 742 762 741 734 775 796 844 849 839 837 849 872 892 908 968 993 1037 1036 1072 1083 1091 1101 1129 1137 1125 1146 1118 1126 1126 1100 1033 1016 999 994 965 948 902 896 859 851 851 875 878 847 795 781 764 755 730 719 700 681 657 689 710 719 738 763 785 797 814 841 933 963 1020 1034 1019 1028 1042 1058 1076 1049 1064 1073 1093 1110 1139 1159 1206 1194 1111 1048 1040 1047 1085 1100 1115 1127 1155 1167 1150 1159 1188 1191 1222 1239 1268 1283 1315 1294 1239 1206 1147 1121 1075 1061 1018 1006 947 930 904 921 952 969 1004 1011 1052 1070 1107 1129 1137 1109 1092 1114 1151 1166 1195 1197 1218 1229 1259 1280 1288 1319 1371 1387 1419 1425 1398 1414 1401 1400 1404 1413 1443 1460 1504 1534 1575 1618 1643 1658 1692 1703 1706 1718 1742 1787 1816 1818 1794 1762 1776 1760 1716 1708 1671 1640 1616 1604 1551 1541 1488 1479 1453 1443 1392 1386 1351 1329 1291 1270 1270 1274 1299 1294 1295 1308 1332 1337 1345 1351 1369 1367 1358 1350 1322 1311 1256 1255 1281 1292 1331 1339 1356 1366 1382 1386 1411 1416 1428 1442 1473 1477 1487 1482 1503 1514 1534 1548 1572 1576 1568 1590 1634 1644 1663 1670 1678 1682 1686 1708 1728 1744 1767 1776 1779 1791 1801 1810 1802 1801 1839 1862 1893 1900 1950 1951 1965 1975 2018 2031 2003 1970 1932 1934 1920 1900 1865 1846 1770 1748 1722 1710 1686 1678 1667 1657 1651 1651 1658 1673 1713 1717 1735 1734 1738 1735 1745 1751 1797 1805 1830 1833 1840 1836 1863 1865 1845 1824 1810 1786 1773 1776 1773 1772 1766 1759 1817 1853 1909 1936 1983 2000 2037 2053 2090 2098 2065 2044 1992 1976 1936 1918 1843 1852 1845 1863 1915 1912 1851 1812 1766 1763 1739 1733 1732 1738 1727 1728 1713 1726 1712 1702 1645 1633 1665 1679 1678 1671 1639 1673 1656 1640 1630 1672 1696 1694 1697 1697 1714 1718 1715 1726 1754 1764 1771 1770 1815 1817 1814 1828 1837 1832 1842 1844 1839 1840 1844 1845 1870 1886 1930 1931 1917 -9999 -9999
-9999 -9999 -9999 -9999 -9999 -9999 -9999 -9999 -9999 -9999 -9999 -9999 -9999 -9999 -9999 -9999 -9999 -9999 -9999 -9999 -9999 -9999 -9999 -9999 -9999 -9999 -9999 -9999 -9999 -9999 -9999 -9999 -9999 -9999 -9999 -9999 -9999 -9999 -9999 -9999 -9999 -9999 -9999 -9999 -9999 -9999 -9999 -9999 -9999 -9999 -9999 -9999 -9999 -9999 -9999 -9999 -9999 -9999 -9999 -9999 -9999 -9999 -9999 -9999 -9999 -9999 -9999 -9999 -9999 -9999 -9999 -9999 -9999 -9999 -9999 -9999 -9999 -9999 -9999 -9999 -9999 -9999 -9999 -9999 -9999 -9999 1030 1010 992 965 951 934 939 952 941 938 949 976 1016 1007 988 961 921 873 807 748 721 709 717 701 711 692 651 591 566 503 448 371 343 349 373 413 437 462 485 494 503 546 558 589 603 625 643 717 717 678 687 757 786 802 804 787 804 834 850 887 905 938 961 980 994 1047 1083 1153 1163 1182 1195 1204 1201 1192 1190 1151 1123 1116 1109 1079 1079 1057 1036 996 980 955 947 915 893 849 836 815 808 781 775 761 753 718 711 654 674 713 743 749 758 780 791 833 856 891 931 1001 1030 1030 1014 1027 1043 1070 1079 1080 1083 1112 1114 1136 1162 1203 1172 1088 1037 1062 1085 1100 1111 1133 1150 1181 1183 1216 1206 1211 1217 1236 1246 1271 1287 1323 1328 1283 1239 1162 1143 1110 1092 1065 1040 983 977 934 918 932 959 1000 1023 1058 1074 1080 1064 1050 1056 1073 1095 1126 1161 1156 1157 1206 1221 1250 1259 1296 1317 1371 1392 1409 1387 1362 1363 1370 1389 1415 1422 1442 1462 1483 1507 1577 1602 1621 1636 1652 1659 1688 1731 1774 1802 1819 1826 1821 1797 1771 1758 1735 1712 1677 1654 1612 1587 1557 1542 1504 1502 1468 1442 1409 1387 1336 1325 1304 1314 1320 1333 1374 1360 1350 1358 1368 1366 1378 1380 1372 1363 1343 1339 1325 1308 1263 1284 1312 1308 1328 1334 1360 1374 1400 1413 1416 1424 1442 1455 1499 1502 1522 1525 1532 1546 1556 1561 1599 1608 1630 1641 1663 1668 1675 1682 1704 1721 1739 1741 1758 1770 1780 1785 1805 1812 1834 1863 1912 1939 1977 1992 2003 1997 2012 2018 2033 2026 2027 2009 1983 1961 1938 1912 1868 1852 1831 1806 1760 1736 1712 1692 1677 1668 1646 1638 1633 1630 1628 1644 1683 1700 1706 1708 1718 1713 1742 1753 1758 1756 1759 1762 1803 1818 1848 1847 1818 1800 1780 1762 1730 1719 1730 1756 1774 1801 1841 1863 1896 1906 1937 1942 1985 2002 2033 2030 2016 2004 1959 1941 1886 1869 1799 1805 1855 1849 1853 1863 1823 1793 1733 1718 1701 1699 1705 1699 1697 1696 1702 1710 1699 1697 1671 1662 1632 1645 1640 1639 1621 1614 1646 1651 1662 1664 1664 1667 1676 1683 1695 1708 1738 1759 1774 1788 1817 1826 1840 1845 1850 1861 1865 1863 1864 1866 1880 1864 1861 1859 1858 1858 1875 1885 1894 1889 1887
-9999 -9999 -9999 -9999 -9999 -9999 -9999 -9999 -9999 -9999 -9999 -9999 -9999 -9999 -9999 -9999 -9999 -9999 -9999 -9999 -9999 -9999 -9999 -9999 -9999 -9999 -9999 -9999 -9999 -9999 -9999 -9999 -9999 -9999 -9999 -9999 -9999 -9999 -9999 -9999 -9999 -9999 -9999 -9999 -9999 -9999 -9999 -9999 -9999 -9999 -9999 -9999 -9999 -9999 -9999 -9999 -9999 -9999 -9999 -9999 -9999 -9999 -9999 -9999 -9999 -9999 -9999 -9999 -9999 -9999 -9999 -9999 -9999 -9999 -9999 -9999 -9999 -9999 -9999 -9999 -9999 -9999 -9999 -9999 -9999 -9999 1044 1014 1001 986 972 975 977 976 959 965 970 1006 1029 1021 994 963 917 864 806 756 732 739 726 719 733 716 681 626 591 510 459 389 369 346 355 389 418 436 469 470 484 526 540 578 598 619 640 708 703 666 666 748 768 777 774 767 793 827 840 879 900 941 948 964 970 1033 1067 1140 1150 1174 1183 1188 1188 1174 1174 1170 1155 1143 1129 1120 1120 1091 1057 1021 1015 997 957 912 893 859 840 826 816 795 796 777 768 735 727 676 659 693 714 745 758 784 789 831 857 902 920 986 1008 1031 1013 1027 1042 1066 1082 1081 1082 1102 1118 1141 1163 1198 1168 1087 1046 1065 1095 1115 1115 1139 1160 1180 1199 1222 1228 1240 1254 1248 1253 1272 1283 1326 1336 1293 1241 1170 1151 1127 1111 1076 1058 1013 990 956 935 927 949 988 1013 1045 1047 1042 1039 1057 1051 1074 1110 1145 1159 1147 1154 1195 1205 1221 1238 1290 1310 1373 1389 1392 1383 1342 1347 1364 1384 1416 1420 1443 1460 1480 1526 1575 1598 1607 1619 1636 1657 1698 1740 1782 1804 1820 1822 1824 1798 1768 1754 1731 1712 1680 1645 1625 1591 1561 1545 1513 1509 1455 1435 1390 1377 1351 1320 1340 1348 1335 1350 1403 1408 1395 1406 1386 1378 1371 1372 1372 1364 1334 1329 1321 1308 1265 1280 1317 1327 1341 1343 1356 1371 1404 1417 1424 1423 1450 1459 1500 1509 1537 1544 1544 1552 1565 1571 1606 1617 1639 1653 1676 1677 1678 1681 1706 1729 1751 1753 1773 1784 1798 1805 1816 1828 1871 1891 1949 1968 2030 2042 2038 2029 2023 2019 2023 2013 1998 1981 1962 1951 1935 1902 1862 1824 1805 1787 1746 1725 1710 1698 1673 1664 1647 1638 1621 1618 1622 1650 1679 1685 1683 1698 1699 1705 1737 1744 1735 1732 1733 1747 1786 1804 1839 1837 1815 1798 1761 1751 1721 1706 1735 1759 1800 1808 1827 1842 1869 1877 1899 1916 1962 1976 2000 1994 1987 1980 1942 1921 1899 1872 1783 1784 1844 1834 1836 1846 1807 1769 1726 1712 1700 1678 1691 1688 1685 1685 1692 1692 1696 1685 1666 1651 1616 1637 1633 1636 1612 1623 1654 1650 1649 1651 1668 1674 1686 1697 1713 1726 1755 1773 1797 1807 1826 1836 1851 1856 1864 1873 1877 1877 1870 1870 1884 1886 1876 1869 1863 1861 1862 1865 1871 1872 1873
-9999 -9999 -9999 -9999 -9999 -9999 -9999 -9999 -9999 -9999 -9999 -9999 -9999 -9999 -9999 -9999 -9999 -9999 -9999 -9999 -9999 -9999 -9999 -9999 -9999 -9999 -9999 -9999 -9999 -9999 -9999 -9999 -9999 -9999 -9999 -9999 -9999 -9999 -9999 -9999 -9999 -9999 -9999 -9999 -9999 -9999 -9999 -9999 -9999 -9999 -9999 -9999 -9999 -9999 -9999 -9999 -9999 -9999 -9999 -9999 -9999 -9999 -9999 -9999 -9999 -9999 -9999 -9999 -9999 -9999 -9999 -9999 -9999 -9999 -9999 -9999 -9999 -9999 -9999 -9999 -9999 -9999 -9999 -9999 -9999 -9999 1073 1041 1039 1039 1030 1019 1020 1000 989 1014 1056 1056 1040 1013 996 953 905 825 806 772 756 771 774 758 755 721 699 637 595 515 487 466 435 389 377 353 395 423 436 455 481 507 529 556 579 616 650 656 644 620 649 697 706 736 729 742 764 806 825 870 885 916 913 943 946 1028 1057 1089 1096 1131 1146 1128 1126 1126 1132 1174 1196 1231 1213 1186 1154 1113 1097 1056 1045 986 956 928 918 892 881 854 841 841 828 807 797 773 761 715 671 697 709 741 748 778 787 838 855 915 930 967 976 1014 1016 1017 1035 1048 1075 1084 1081 1109 1130 1138 1159 1194 1160 1086 1055 1075 1089 1118 1127 1147 1171 1204 1212 1228 1241 1253 1262 1277 1275 1294 1326 1343 1353 1322 1253 1212 1200 1172 1158 1130 1109 1054 1033 986 958 909 932 983 990 1007 1015 1057 1062 1070 1076 1084 1088 1102 1115 1128 1141 1164 1171 1194 1199 1247 1275 1336 1348 1348 1342 1349 1344 1365 1375 1403 1416 1435 1459 1518 1547 1574 1569 1583 1589 1641 1683 1726 1749 1774 1788 1801 1824 1830 1814 1761 1739 1718 1695 1668 1642 1606 1600 1575 1547 1510 1483 1443 1430 1439 1450 1428 1393 1400 1417 1424 1439 1447 1445 1426 1404 1383 1380 1370 1368 1371 1366 1330 1319 1286 1281 1280 1296 1333 1343 1361 1367 1382 1387 1394 1402 1454 1448 1466 1476 1507 1521 1552 1560 1572 1570 1578 1587 1618 1631 1657 1667 1690 1699 1710 1706 1724 1734 1776 1787 1797 1814 1838 1852 1888 1905 1952 1970 2001 2021 2062 2055 2046 2046 2037 2031 2005 1989 1947 1927 1916 1920 1902 1887 1839 1805 1762 1734 1713 1692 1677 1676 1678 1670 1643 1629 1621 1601 1604 1633 1658 1655 1653 1663 1666 1701 1703 1701 1687 1706 1738 1742 1774 1786 1825 1826 1793 1770 1722 1721 1696 1690 1720 1738 1758 1760 1770 1781 1800 1808 1852 1866 1906 1916 1927 1918 1921 1939 1913 1899 1902 1875 1791 1760 1797 1776 1785 1812 1789 1755 1703 1686 1669 1664 1672 1668 1667 1671 1691 1697 1671 1658 1642 1640 1618 1608 1617 1606 1616 1623 1639 1648 1660 1668 1684 1689 1724 1744 1767 1783 1809 1818 1849 1857 1856 1868 1882 1886 1893 1894 1897 1901 1904 1910 1904 1927 1928 1912 1875 1878 1876 1877 1877 1878 1877
-9999 -9999 -9999 -9999 -9999 -9999 -9999 -9999 -9999 -9999 -9999 -9999 -9999 -9999 -9999 -9999 -9999 -9999 -9999 -9999 -9999 -9999 -9999 -9999 -9999 -9999 -9999 -9999 -9999 -9999 -9999 -9999 -9999 -9999 -9999 -9999 -9999 -9999 -9999 -9999 -9999 -9999 -9999 -9999 -9999 -9999 -9999 -9999 -9999 -9999 -9999 -9999 -9999 -9999 -9999 -9999 -9999 -9999 -9999 -9999 -9999 -9999 -9999 -9999 -9999 -9999 -9999 -9999 -9999 -9999 -9999 -9999 -9999 -9999 -9999 -9999 -9999 -9999 -9999 -9999 -9999 -9999 -9999 -9999 -9999 -9999 -9999 1057 1050 1055 1056 1047 1043 1020 1021 1051 1089 1077 1065 1022 995 939 890 828 814 780 767 783 780 776 765 723 705 641 604 556 532 496 456 404 383 371 413 423 443 461 479 502 510 538 561 607 635 631 608 598 631 662 709 706 708 737 768 790 817 858 879 897 898 922 942 1028 1046 1068 1085 1117 1126 1099 1103 1112 1117 1173 1195 1244 1229 1200 1187 1137 1121 1077 1057 1000 977 950 940 911 897 866 868 865 846 824 809 781 769 733 691 683 713 746 762 776 786 842 864 910 920 953 968 1005 1014 1015 1022 1038 1064 1073 1078 1104 1133 1130 1167 1196 1140 1081 1069 1088 1095 1118 1126 1152 1182 1207 1226 1244 1252 1262 1274 1285 1293 1322 1343 1363 1376 1345 1275 1238 1213 1183 1172 1133 1124 1063 1040 988 962 928 936 975 980 1027 1040 1054 1060 1069 1078 1090 1097 1109 1117 1127 1139 1169 1180 1204 1208 1233 1259 1297 1312 1321 1324 1336 1342 1374 1379 1400 1407 1465 1493 1548 1562 1565 1556 1583 1606 1647 1680 1731 1741 1761 1777 1800 1825 1831 1805 1777 1736 1709 1688 1664 1624 1598 1588 1563 1542 1503 1481 1448 1438 1444 1462 1437 1419 1445 1450 1449 1445 1450 1442 1420 1395 1378 1372 1366 1367 1365 1363 1329 1318 1281 1271 1293 1310 1344 1354 1369 1375 1390 1402 1420 1434 1466 1466 1463 1479 1526 1536 1563 1570 1578 1576 1586 1598 1630 1640 1668 1677 1700 1711 1720 1716 1731 1749 1793 1801 1813 1827 1860 1872 1909 1937 1980 1989 2036 2056 2055 2049 2056 2054 2054 2038 1992 1977 1942 1921 1893 1894 1882 1872 1832 1791 1746 1724 1705 1684 1672 1666 1664 1659 1643 1630 1609 1598 1593 1621 1641 1645 1634 1634 1653 1679 1675 1669 1689 1708 1732 1734 1767 1779 1810 1817 1782 1759 1706 1702 1689 1678 1701 1725 1731 1731 1740 1753 1770 1789 1829 1844 1874 1884 1911 1899 1905 1906 1896 1884 1894 1871 1775 1746 1755 1744 1755 1780 1778 1749 1691 1677 1649 1644 1657 1652 1673 1675 1692 1691 1652 1640 1627 1630 1621 1608 1606 1607 1631 1636 1649 1652 1665 1674 1698 1711 1758 1775 1809 1819 1825 1832 1859 1867 1878 1886 1903 1907 1915 1916 1918 1920 1921 1924 1922 1931 1922 1906 1888 1895 1887 1887 1890 1889 1887
-9999 -9999 -9999 -9999 -9999 -9999 -9999 -9999 -9999 -9999 -9999 -9999 -9999 -9999 -9999 -9999 -9999 -9999 -9999 -9999 -9999 -9999 -9999 -9999 -9999 -9999 -9999 -9999 -9999 -9999 -9999 -9999 -9999 -9999 -9999 -9999 -9999 -9999 -9999 -9999 -9999 -9999 -9999 -9999 -9999 -9999 -9999 -9999 -9999 -9999 -9999 -9999 -9999 -9999 -9999 -9999 -9999 -9999 -9999 -9999 -9999 -9999 -9999 -9999 -9999 -9999 -9999 -9999 -9999 -9999 -9999 -9999 -9999 -9999 -9999 -9999 -9999 -9999 -9999 -9999 -9999 -9999 -9999 -9999 -9999 -9999 -9999 1099 1101 1100 1092 1096 1103 1125 1131 1151 1144 1101 1080 1013 982 917 888 867 838 818 817 830 818 782 767 737 726 698 650 566 542 463 456 420 389 359 386 437 458 452 454 466 480 505 544 579 608 605 573 566 602 628 675 673 692 712 741 766 807 830 845 866 869 910 956 987 992 1039 1050 1094 1088 1066 1071 1081 1097 1174 1197 1233 1254 1246 1232 1181 1158 1122 1099 1038 1038 1006 990 960 952 912 918 897 884 853 838 816 806 778 766 685 705 747 758 789 795 868 875 903 913 950 965 997 1006 1011 1020 1032 1036 1055 1073 1103 1124 1162 1183 1204 1156 1067 1090 1118 1120 1121 1135 1154 1183 1207 1222 1245 1261 1274 1292 1318 1340 1363 1381 1402 1404 1389 1319 1287 1260 1211 1189 1154 1145 1092 1053 1006 979 944 974 1003 1009 1021 1013 1025 1042 1060 1058 1064 1076 1103 1111 1126 1134 1169 1180 1216 1209 1242 1246 1278 1292 1308 1308 1325 1348 1385 1385 1423 1446 1497 1514 1536 1543 1566 1569 1607 1632 1662 1689 1718 1734 1766 1787 1826 1839 1820 1804 1765 1753 1705 1683 1647 1621 1594 1574 1557 1544 1513 1509 1473 1467 1461 1463 1454 1451 1454 1466 1462 1450 1432 1418 1399 1387 1372 1366 1361 1359 1356 1354 1329 1301 1286 1292 1323 1336 1365 1377 1394 1398 1415 1426 1456 1482 1470 1477 1483 1493 1529 1548 1577 1585 1596 1597 1608 1626 1653 1665 1686 1694 1729 1737 1741 1736 1749 1777 1824 1834 1853 1862 1896 1905 1944 1975 2035 2041 2047 2052 2049 2043 2058 2061 2049 2043 2002 1988 1943 1928 1908 1864 1839 1838 1804 1777 1728 1712 1674 1670 1652 1637 1624 1624 1624 1621 1607 1595 1585 1575 1590 1606 1590 1610 1637 1639 1622 1644 1679 1692 1697 1707 1726 1752 1776 1770 1746 1719 1693 1685 1670 1669 1667 1683 1678 1678 1688 1712 1749 1763 1799 1812 1838 1846 1857 1837 1839 1843 1852 1838 1853 1850 1798 1769 1707 1688 1701 1714 1734 1723 1680 1665 1634 1634 1660 1674 1704 1711 1689 1667 1630 1621 1610 1608 1604 1593 1621 1619 1638 1645 1661 1671 1705 1731 1748 1765 1813 1826 1855 1861 1872 1880 1903 1914 1934 1938 1952 1958 1958 1961 1964 1970 1973 1970 1967 1959 1945 1946 1925 1921 1923 1920 1927 1927 -9999
-9999 -9999 -9999 -9999 -9999 -9999 -9999 -9999 -9999 -9999 -9999 -9999 -9999 -9999 -9999 -9999 -9999 -9999 -9999 -9999 -9999 -9999 -9999 -9999 -9999 -9999 -9999 -9999 -9999 -9999 -9999 -9999 -9999 -9999 -9999 -9999 -9999 -9999 -9999 -9999 -9999 -9999 -9999 -9999 -9999 -9999 -9999 -9999 -9999 -9999 -9999 -9999 -9999 -9999 -9999 -9999 -9999 -9999 -9999 -9999 -9999 -9999 -9999 -9999 -9999 -9999 -9999 -9999 -9999 -9999 -9999 -9999 -9999 -9999 -9999 -9999 -9999 -9999 -9999 -9999 -9999 -9999 -9999 -9999 -9999 -9999 -9999 1117 1119 1114 1112 1119 1133 1162 1169 1179 1152 1101 1081 1008 981 934 914 863 856 841 843 851 846 797 783 761 749 690 655 571 539 481 485 445 411 390 364 413 452 460 453 448 461 493 531 562 585 582 550 560 585 622 646 664 675 698 720 741 788 808 838 844 862 915 954 955 975 1021 1026 1088 1078 1047 1053 1068 1094 1165 1182 1228 1236 1252 1239 1206 1180 1137 1110 1077 1075 1045 1007 981 974 951 958 935 920 877 863 840 834 799 783 691 707 736 741 784 802 875 886 908 917 945 958 989 1001 1024 1029 1024 1026 1061 1064 1112 1121 1162 1179 1195 1143 1073 1094 1117 1120 1127 1148 1158 1176 1212 1220 1246 1257 1274 1294 1299 1335 1368 1381 1404 1410 1408 1334 1293 1271 1230 1195 1174 1147 1103 1069 1022 973 939 962 985 990 996 1009 1043 1062 1094 1070 1066 1077 1095 1106 1131 1138 1175 1194 1222 1227 1255 1258 1287 1292 1313 1313 1320 1347 1385 1401 1432 1453 1499 1511 1526 1537 1553 1557 1619 1632 1677 1690 1721 1736 1773 1787 1831 1842 1831 1805 1755 1749 1707 1687 1660 1629 1613 1592 1569 1569 1539 1551 1478 1484 1476 1473 1465 1459 1459 1466 1459 1449 1434 1415 1400 1384 1371 1363 1356 1355 1351 1345 1323 1294 1296 1313 1332 1347 1378 1393 1406 1411 1425 1433 1463 1491 1480 1485 1495 1504 1529 1545 1577 1585 1606 1609 1616 1631 1654 1669 1694 1702 1735 1748 1754 1745 1764 1786 1830 1857 1883 1893 1916 1926 1973 2000 2049 2042 2036 2038 2050 2042 2050 2052 2030 2028 1997 1981 1938 1923 1899 1877 1812 1813 1790 1771 1720 1710 1673 1664 1637 1629 1624 1623 1615 1611 1608 1597 1580 1568 1577 1594 1582 1611 1617 1608 1631 1652 1674 1676 1676 1689 1712 1735 1759 1747 1727 1708 1684 1669 1661 1656 1666 1673 1665 1663 1680 1708 1729 1753 1783 1794 1815 1821 1830 1817 1805 1803 1809 1801 1827 1816 1809 1785 1726 1697 1689 1698 1717 1714 1667 1655 1625 1637 1673 1692 1732 1711 1677 1657 1622 1616 1604 1598 1594 1592 1633 1626 1637 1648 1668 1682 1725 1754 1790 1803 1837 1849 1864 1864 1870 1882 1918 1933 1961 1966 1979 1985 1987 1989 1999 2001 2003 2000 1979 1970 1958 1955 1947 1941 1949 1948 1960 1963 -9999
-9999 -9999 -9999 -9999 -9999 -9999 -9999 -9999 -9999 -9999 -9999 -9999 -9999 -9999 -9999 -9999 -9999 -9999 -9999 -9999 -9999 -9999 -9999 -9999 -9999 -9999 -9999 -9999 -9999 -9999 -9999 -9999 -9999 -9999 -9999 -9999 -9999 -9999 -9999 -9999 -9999 -9999 -9999 -9999 -9999 -9999 -9999 -9999 -9999 -9999 -9999 -9999 -9999 -9999 -9999 -9999 -9999 -9999 -9999 -9999 -9999 -9999 -9999 -9999 -9999 -9999 -9999 -9999 -9999 -9999 -9999 -9999 -9999 -9999 -9999 -9999 -9999 -9999 -9999 -9999 -9999 -9999 -9999 -9999 -9999 -9999 -9999 -9999 1161 1149 1160 1188 1182 1205 1222 1209 1165 1107 1097 1037 1018 962 918 902 893 902 905 910 904 836 811 767 747 683 655 570 564 562 532 466 446 432 407 370 393 438 419 422 423 477 496 541 545 534 510 533 541 588 608 607 602 623 658 703 740 775 796 813 847 905 928 939 964 986 1002 1027 1018 1014 1012 1053 1083 1153 1176 1176 1184 1217 1234 1222 1194 1152 1145 1127 1132 1108 1086 1066 1063 1053 1059 993 976 915 902 891 870 838 827 733 694 728 745 801 805 859 865 894 912 947 962 1001 1013 1015 1017 1014 1023 1060 1061 1111 1124 1153 1169 1206 1174 1078 1099 1122 1136 1151 1160 1178 1204 1231 1243 1280 1284 1301 1313 1336 1345 1360 1381 1407 1424 1434 1384 1321 1296 1247 1222 1201 1177 1128 1098 1040 1013 952 948 972 988 1023 1041 1073 1094 1133 1142 1134 1113 1107 1124 1166 1199 1210 1214 1229 1239 1262 1272 1287 1291 1297 1308 1327 1345 1375 1387 1423 1448 1488 1483 1522 1530 1565 1578 1606 1626 1683 1690 1728 1735 1773 1784 1831 1845 1847 1816 1764 1740 1693 1681 1671 1646 1617 1609 1616 1611 1619 1605 1537 1519 1502 1493 1479 1473 1474 1470 1458 1447 1430 1411 1396 1383 1375 1369 1362 1349 1334 1314 1290 1299 1318 1325 1351 1373 1397 1414 1434 1432 1444 1459 1481 1512 1488 1493 1519 1525 1551 1557 1574 1578 1606 1617 1627 1632 1661 1667 1690 1706 1749 1758 1779 1777 1800 1820 1875 1883 1908 1923 1949 1963 2030 2061 2057 2042 2007 2013 2036 2047 2031 2031 2011 2004 1981 1966 1916 1897 1851 1828 1818 1805 1749 1741 1722 1707 1675 1671 1658 1653 1623 1613 1613 1607 1595 1591 1574 1564 1549 1543 1574 1574 1594 1626 1639 1645 1644 1636 1647 1659 1685 1704 1724 1707 1701 1693 1678 1660 1640 1636 1648 1653 1635 1659 1677 1702 1727 1743 1752 1759 1766 1773 1777 1760 1751 1737 1750 1756 1789 1771 1775 1761 1716 1708 1665 1647 1658 1657 1641 1630 1628 1643 1664 1670 1672 1666 1642 1632 1603 1599 1583 1582 1598 1620 1639 1643 1639 1657 1709 1732 1771 1788 1810 1807 1817 1827 1839 1833 1859 1878 1909 1924 1960 1973 2016 2027 2031 2034 2043 2040 2026 2028 2022 2012 1997 1993 1983 1979 1982 1988 2000 1995 -9999
-9999 -9999 -9999 -9999 -9999 -9999 -9999 -9999 -9999 -9999 -9999 -9999 -9999 -9999 -9999 -9999 -9999 -9999 -9999 -9999 -9999 -9999 -9999 -9999 -9999 -9999 -9999 -9999 -9999 -9999 -9999 -9999 -9999 -9999 -9999 -9999 -9999 -9999 -9999 -9999 -9999 -9999 -9999 -9999 -9999 -9999 -9999 -9999 -9999 -9999 -9999 -9999 -9999 -9999 -9999 -9999 -9999 -9999 -9999 -9999 -9999 -9999 -9999 -9999 -9999 -9999 -9999 -9999 -9999 -9999 -9999 -9999 -9999 -9999 -9999 -9999 -9999 -9999 -9999 -9999 -9999 -9999 -9999 -9999 -9999 -9999 -9999 -9999 1193 1197 1204 1219 1231 1264 1271 1231 1196 1160 1140 1075 1039 964 933 923 929 946 943 946 929 850 818 759 748 704 681 641 636 555 538 480 463 436 428 380 376 378 381 394 407 475 491 499 504 480 482 522 543 562 548 542 544 591 621 654 681 747 778 790 832 874 889 916 944 968 996 991 983 994 1018 1052 1089 1146 1147 1141 1157 1201 1221 1235 1197 1193 1195 1188 1180 1139 1135 1122 1116 1098 1086 1043 1023 962 951 910 898 859 841 736 700 728 753 786 798 830 844 865 884 936 956 982 1004 1008 1000 999 1024 1052 1078 1099 1113 1138 1157 1207 1190 1097 1089 1133 1139 1171 1174 1191 1196 1235 1248 1299 1299 1315 1313 1366 1367 1380 1389 1410 1431 1451 1425 1346 1301 1265 1247 1225 1189 1138 1119 1067 1027 970 958 979 1001 1044 1061 1095 1121 1134 1149 1170 1167 1156 1138 1189 1205 1272 1268 1239 1250 1266 1281 1290 1291 1299 1312 1337 1351 1378 1387 1416 1430 1461 1467 1508 1521 1570 1581 1610 1631 1678 1688 1726 1737 1770 1790 1836 1838 1834 1815 1753 1735 1689 1688 1678 1671 1624 1626 1642 1650 1637 1635 1559 1541 1536 1521 1494 1487 1475 1470 1455 1445 1426 1415 1401 1390 1381 1380 1376 1363 1345 1319 1312 1311 1330 1341 1349 1381 1421 1447 1457 1456 1467 1495 1509 1532 1512 1505 1529 1541 1561 1571 1586 1594 1599 1611 1625 1631 1661 1671 1708 1737 1759 1769 1808 1827 1843 1862 1910 1914 1911 1927 1970 2000 2072 2073 2060 2053 2004 1988 2009 2016 2007 1995 1985 1979 1951 1942 1906 1886 1822 1784 1777 1769 1743 1726 1711 1704 1685 1679 1671 1669 1640 1606 1591 1588 1581 1575 1560 1556 1548 1530 1551 1571 1617 1628 1615 1617 1614 1611 1634 1648 1679 1694 1708 1699 1686 1670 1668 1649 1616 1619 1633 1632 1617 1636 1653 1677 1699 1709 1717 1718 1725 1736 1762 1746 1709 1720 1729 1737 1784 1746 1725 1719 1671 1664 1664 1654 1623 1621 1619 1617 1603 1609 1629 1636 1634 1631 1622 1612 1588 1585 1588 1606 1626 1633 1643 1647 1679 1684 1672 1688 1718 1734 1751 1749 1772 1785 1808 1825 1852 1855 1898 1910 1944 1956 2009 2031 2047 2046 2034 2028 2012 2018 2035 2041 2032 2026 2020 2017 2019 2020 2021 2019 -9999
-9999 -9999 -9999 -9999 -9999 -9999 -9999 -9999 -9999 -9999 -9999 -9999 -9999 -9999 -9999 -9999 -9999 -9999 -9999 -9999 -9999 -9999 -9999 -9999 -9999 -9999 -9999 -9999 -9999 -9999 -9999 -9999 -9999 -9999 -9999 -9999 -9999 -9999 -9999 -9999 -9999 -9999 -9999 -9999 -9999 -9999 -9999 -9999 -9999 -9999 -9999 -9999 -9999 -9999 -9999 -9999 -9999 -9999 -9999 -9999 -9999 -9999 -9999 -9999 -9999 -9999 -9999 -9999 -9999 -9999 -9999 -9999 -9999 -9999 -9999 -9999 -9999 -9999 -9999 -9999 -9999 -9999 -9999 -9999 -9999 -9999 -9999 -9999 1254 1244 1254 1271 1300 1335 1331 1288 1255 1189 1160 1074 1047 971 964 962 974 1018 1028 975 941 842 807 751 742 715 704 654 623 560 541 514 489 462 450 422 409 416 410 379 388 436 446 430 435 451 465 505 497 493 486 496 511 553 583 635 654 686 713 755 791 804 826 894 907 932 950 933 951 995 1025 1061 1084 1108 1110 1109 1116 1157 1184 1216 1240 1249 1243 1212 1206 1183 1176 1160 1132 1109 1103 1064 1057 1011 991 956 931 858 845 800 752 720 734 776 781 805 820 866 875 911 919 940 956 973 979 1012 1013 1052 1054 1089 1105 1136 1149 1195 1187 1108 1104 1124 1138 1169 1177 1194 1202 1234 1260 1287 1303 1332 1346 1369 1360 1378 1388 1415 1431 1457 1456 1383 1364 1308 1276 1249 1218 1140 1121 1062 1043 990 967 985 1002 1030 1058 1081 1104 1116 1141 1163 1218 1217 1210 1199 1209 1279 1289 1296 1298 1326 1333 1309 1306 1329 1332 1359 1372 1393 1410 1431 1438 1457 1478 1527 1550 1597 1606 1623 1637 1675 1685 1729 1740 1752 1764 1790 1801 1820 1815 1788 1777 1752 1756 1732 1687 1649 1664 1658 1662 1621 1610 1568 1554 1544 1542 1536 1519 1475 1468 1443 1437 1421 1411 1399 1389 1374 1376 1383 1368 1332 1305 1327 1344 1363 1378 1370 1395 1443 1475 1485 1491 1495 1511 1540 1554 1534 1542 1543 1544 1569 1582 1602 1619 1631 1631 1646 1657 1716 1737 1753 1758 1778 1782 1838 1860 1905 1918 1946 1936 1923 1936 2000 2030 2063 2058 2044 2040 1983 1955 1944 1955 1956 1941 1956 1937 1909 1903 1883 1864 1801 1766 1723 1715 1687 1680 1683 1677 1688 1684 1666 1651 1644 1625 1571 1566 1567 1562 1546 1542 1535 1516 1562 1569 1582 1592 1591 1586 1606 1626 1656 1659 1664 1671 1675 1673 1658 1649 1650 1641 1618 1590 1615 1619 1590 1613 1631 1647 1666 1681 1698 1694 1718 1731 1736 1726 1679 1648 1688 1717 1737 1726 1681 1657 1659 1628 1650 1627 1622 1613 1606 1606 1595 1576 1602 1604 1605 1604 1595 1589 1571 1582 1612 1620 1622 1633 1676 1683 1695 1695 1716 1728 1764 1784 1776 1803 1799 1786 1832 1842 1856 1868 1901 1906 1931 1948 1994 2002 1979 1975 1977 1986 2020 2026 2030 2038 2076 2094 2095 2076 -9999 -9999 -9999 -9999 -9999
-9999 -9999 -9999 -9999 -9999 -9999 -9999 -9999 -9999 -9999 -9999 -9999 -9999 -9999 -9999 -9999 -9999 -9999 -9999 -9999 -9999 -9999 -9999 -9999 -9999 -9999 -9999 -9999 -9999 -9999 -9999 -9999 -9999 -9999 -9999 -9999 -9999 -9999 -9999 -9999 -9999 -9999 -9999 -9999 -9999 -9999 -9999 -9999 -9999 -9999 -9999 -9999 -9999 -9999 -9999 -9999 -9999 -9999 -9999 -9999 -9999 -9999 -9999 -9999 -9999 -9999 -9999 -9999 -9999 -9999 -9999 -9999 -9999 -9999 -9999 -9999 -9999 -9999 -9999 -9999 -9999 -9999 -9999 -9999 -9999 -9999 -9999 -9999 1276 1271 1286 1330 1343 1357 1348 1301 1266 1182 1154 1073 1040 997 984 994 1009 1052 1040 970 939 829 801 751 741 717 710 666 641 566 549 525 513 478 464 434 436 427 422 383 383 412 420 417 419 432 437 482 481 478 494 525 530 526 561 622 618 651 680 734 756 773 798 864 880 910 928 923 948 997 1028 1067 1080 1078 1072 1081 1101 1156 1185 1199 1240 1273 1255 1223 1216 1199 1193 1155 1130 1102 1104 1073 1069 1027 1013 965 943 893 871 821 789 716 748 764 775 794 818 860 870 888 895 922 931 963 972 1009 1010 1049 1052 1074 1100 1137 1145 1184 1172 1104 1100 1126 1133 1164 1178 1203 1208 1241 1259 1292 1304 1334 1343 1351 1364 1371 1380 1404 1417 1446 1465 1399 1379 1319 1297 1265 1225 1147 1125 1091 1070 1008 977 975 996 1030 1055 1086 1105 1121 1154 1166 1219 1238 1228 1203 1218 1287 1298 1323 1329 1346 1355 1340 1350 1338 1347 1367 1380 1412 1426 1448 1442 1468 1482 1528 1555 1595 1589 1623 1635 1677 1689 1719 1727 1737 1750 1775 1784 1818 1816 1788 1774 1772 1769 1732 1681 1666 1669 1666 1663 1616 1600 1572 1558 1534 1531 1525 1514 1476 1468 1439 1430 1411 1407 1397 1387 1367 1366 1370 1349 1317 1319 1325 1356 1378 1393 1401 1406 1409 1458 1493 1503 1519 1524 1549 1559 1539 1550 1556 1560 1573 1599 1623 1631 1637 1643 1652 1676 1745 1760 1773 1772 1785 1797 1853 1882 1913 1932 1951 1940 1939 1962 2017 2040 2055 2046 2031 2030 1967 1940 1904 1918 1919 1907 1931 1927 1882 1870 1860 1866 1810 1776 1701 1677 1658 1658 1653 1653 1669 1667 1647 1645 1617 1618 1558 1556 1553 1547 1542 1541 1530 1517 1554 1564 1577 1577 1573 1570 1623 1629 1635 1638 1650 1661 1660 1659 1636 1635 1639 1635 1606 1589 1606 1612 1588 1610 1630 1643 1652 1669 1667 1703 1711 1712 1707 1696 1659 1620 1657 1675 1693 1697 1671 1634 1647 1618 1627 1624 1613 1606 1604 1601 1596 1588 1591 1592 1593 1590 1582 1580 1578 1593 1620 1633 1647 1643 1678 1699 1709 1718 1707 1721 1781 1806 1810 1814 1820 1793 1801 1814 1845 1865 1896 1914 1937 1944 1965 1974 1951 1964 2000 2010 2030 2033 2038 2046 2083 -9999 2114 2111 -9999 -9999 -9999 -9999 -9999
-9999 -9999 -9999 -9999 -9999 -9999 -9999 -9999 -9999 -9999 -9999 -9999 -9999 -9999 -9999 -9999 -9999 -9999 -9999 -9999 -9999 -9999 -9999 -9999 -9999 -9999 -9999 -9999 -9999 -9999 -9999 -9999 -9999 -9999 -9999 -9999 -9999 -9999 -9999 -9999 -9999 -9999 -9999 -9999 -9999 -9999 -9999 -9999 -9999 -9999 -9999 -9999 -9999 -9999 -9999 -9999 -9999 -9999 -9999 -9999 -9999 -9999 -9999 -9999 -9999 -9999 -9999 -9999 -9999 -9999 -9999 -9999 -9999 -9999 -9999 -9999 -9999 -9999 -9999 -9999 -9999 -9999 -9999 -9999 -9999 -9999 -9999 -9999 -9999 1365 1381 1394 1393 1375 1356 1317 1256 1186 1155 1081 1064 1030 1031 1069 1080 1065 1040 954 917 822 800 773 762 736 734 688 663 616 598 557 544 522 509 491 471 448 428 399 386 412 414 417 437 446 445 450 473 515 518 545 551 567 587 574 583 619 632 664 666 702 745 820 829 877 882 907 926 965 999 1028 1021 1018 1032 1070 1093 1136 1168 1205 1250 1286 1270 1248 1217 1212 1200 1146 1125 1106 1086 1078 1089 1054 1033 1000 982 941 905 844 791 719 747 797 801 829 834 854 859 879 888 914 925 955 971 987 1003 1021 1032 1076 1095 1138 1143 1179 1157 1102 1120 1144 1157 1171 1180 1206 1226 1245 1268 1286 1296 1308 1330 1350 1362 1382 1381 1402 1416 1441 1467 1451 1417 1333 1308 1264 1249 1191 1173 1115 1096 1063 1028 985 997 1030 1045 1067 1105 1133 1173 1191 1225 1249 1259 1259 1271 1304 1312 1347 1361 1398 1401 1424 1426 1407 1371 1381 1398 1436 1467 1504 1504 1510 1499 1553 1552 1591 1594 1614 1636 1674 1679 1692 1697 1731 1744 1768 1784 1818 1814 1814 1815 1804 1781 1723 1689 1668 1668 1677 1689 1634 1606 1559 1550 1523 1514 1493 1499 1473 1463 1426 1414 1390 1371 1361 1355 1361 1354 1339 1346 1361 1380 1339 1361 1408 1425 1439 1466 1442 1428 1496 1518 1542 1558 1566 1569 1564 1571 1572 1578 1593 1616 1630 1636 1657 1662 1680 1704 1746 1773 1789 1798 1821 1833 1878 1906 1948 1975 1961 1960 1999 2005 2014 2025 2038 2036 2025 2017 1944 1912 1841 1839 1874 1854 1889 1895 1863 1837 1809 1813 1791 1754 1689 1660 1624 1617 1631 1630 1630 1625 1603 1599 1581 1570 1544 1542 1538 1533 1531 1531 1523 1509 1532 1535 1552 1549 1586 1588 1604 1609 1621 1627 1641 1636 1635 1635 1607 1593 1615 1608 1590 1576 1592 1596 1585 1609 1610 1592 1602 1599 1624 1641 1646 1646 1642 1630 1621 1595 1612 1622 1650 1648 1640 1609 1617 1604 1594 1596 1590 1587 1590 1588 1586 1582 1571 1570 1553 1556 1558 1564 1614 1631 1656 1674 1687 1686 1681 1703 1746 1744 1726 1724 1775 1799 1859 1884 1874 1856 1846 1834 1821 1837 1871 1884 1890 1896 1909 1923 1964 1991 2037 2043 2069 2070 2062 2059 -9999 -9999 -9999 -9999 -9999 -9999 -9999 -9999 -9999
-9999 -9999 -9999 -9999 -9999 -9999 -9999 -9999 -9999 -9999 -9999 -9999 -9999 -9999 -9999 -9999 -9999 -9999 -9999 -9999 -9999 -9999 -9999 -9999 -9999 -9999 -9999 -9999 -9999 -9999 -9999 -9999 -9999 -9999 -9999 -9999 -9999 -9999 -9999 -9999 -9999 -9999 -9999 -9999 -9999 -9999 -9999 -9999 -9999 -9999 -9999 -9999 -9999 -9999 -9999 -9999 -9999 -9999 -9999 -9999 -9999 -9999 -9999 -9999 -9999 -9999 -9999 -9999 -9999 -9999 -9999 -9999 -9999 -9999 -9999 -9999 -9999 -9999 -9999 -9999 -9999 -9999 -9999 -9999 -9999 -9999 -9999 -9999 -9999 1387 1393 1398 1397 1375 1359 1322 1275 1203 1175 1097 1074 1055 1064 1102 1108 1066 1042 934 902 816 803 777 773 745 742 680 661 616 602 571 559 547 531 503 486 452 447 427 389 411 428 465 474 484 496 498 513 546 546 557 558 584 615 602 603 610 611 648 659 699 709 783 802 847 853 875 884 950 974 993 1000 1003 1027 1061 1090 1135 1170 1214 1252 1275 1265 1240 1218 1182 1185 1164 1134 1109 1095 1082 1077 1062 1043 1022 1004 960 913 850 797 721 743 756 784 820 835 855 872 883 895 916 921 958 968 990 988 1018 1032 1071 1094 1138 1146 1169 1147 1117 1124 1153 1157 1196 1193 1211 1219 1243 1274 1287 1294 1321 1333 1355 1358 1379 1388 1407 1415 1449 1470 1461 1428 1333 1308 1268 1252 1201 1180 1133 1116 1074 1044 991 994 1032 1038 1059 1084 1119 1166 1198 1229 1244 1264 1290 1309 1324 1320 1344 1371 1405 1420 1440 1440 1423 1415 1421 1413 1454 1493 1539 1542 1548 1528 1558 1565 1591 1589 1622 1631 1666 1679 1692 1694 1731 1751 1763 1780 1810 1819 1808 1816 1793 1775 1710 1685 1666 1666 1679 1686 1631 1606 1557 1544 1522 1511 1483 1479 1468 1457 1415 1392 1358 1376 1395 1398 1397 1389 1362 1369 1392 1400 1346 1362 1414 1433 1445 1478 1495 1453 1494 1526 1554 1570 1580 1573 1576 1579 1586 1590 1611 1634 1647 1653 1664 1671 1699 1715 1744 1770 1794 1812 1843 1860 1901 1929 1974 1983 1974 1987 2015 2003 1996 2009 2021 2024 2042 2028 1950 1912 1842 1816 1836 1819 1859 1865 1846 1822 1773 1779 1771 1728 1669 1651 1609 1603 1615 1617 1611 1606 1591 1582 1574 1562 1545 1528 1527 1524 1519 1525 1520 1504 1513 1521 1539 1557 1600 1607 1616 1619 1627 1633 1639 1631 1628 1631 1609 1591 1582 1582 1583 1563 1584 1584 1588 1598 1591 1574 1579 1571 1595 1606 1612 1612 1611 1604 1598 1590 1602 1611 1622 1624 1618 1603 1595 1593 1578 1585 1583 1579 1583 1582 1582 1583 1554 1551 1557 1579 1597 1602 1619 1638 1665 1684 1712 1709 1677 1703 1760 1765 1754 1737 1804 1834 1870 1889 1888 1880 1865 1848 1833 1827 1844 1854 1866 1878 1902 1914 1962 1990 2040 2057 2081 2093 2082 2076 -9999 -9999 -9999 -9999 -9999 -9999 -9999 -9999 -9999
-9999 -9999 -9999 -9999 -9999 -9999 -9999 -9999 -9999 -9999 -9999 -9999 -9999 -9999 -9999 -9999 -9999 -9999 -9999 -9999 -9999 -9999 -9999 -9999 -9999 -9999 -9999 -9999 -9999 -9999 -9999 -9999 -9999 -9999 -9999 -9999 -9999 -9999 -9999 -9999 -9999 -9999 -9999 -9999 -9999 -9999 -9999 -9999 -9999 -9999 -9999 -9999 -9999 -9999 -9999 -9999 -9999 -9999 -9999 -9999 -9999 -9999 -9999 -9999 -9999 -9999 -9999 -9999 -9999 -9999 -9999 -9999 -9999 -9999 -9999 -9999 -9999 -9999 -9999 -9999 -9999 -9999 -9999 -9999 -9999 -9999 -9999 -9999 -9999 -9999 1428 1424 1401 1385 1362 1329 1280 1221 1175 1132 1120 1119 1120 1115 1114 1072 1020 918 882 822 809 789 782 749 725 692 674 631 617 583 571 548 530 501 481 455 451 427 399 398 419 499 526 576 596 583 584 592 602 610 610 616 634 657 656 649 663 691 723 775 791 781 778 795 802 818 822 879 901 933 931 1004 1034 1079 1095 1129 1166 1208 1239 1277 1294 1252 1227 1203 1193 1169 1144 1127 1102 1080 1076 1076 1071 1050 1027 988 940 868 821 747 730 768 789 814 838 854 861 870 875 898 919 941 949 960 980 1013 1024 1057 1093 1128 1135 1146 1110 1133 1136 1169 1184 1201 1208 1231 1219 1233 1258 1283 1293 1327 1336 1376 1383 1392 1399 1417 1427 1461 1487 1475 1437 1354 1331 1291 1269 1216 1201 1163 1147 1098 1090 1013 1014 1027 1032 1064 1077 1117 1152 1179 1205 1232 1257 1296 1334 1358 1355 1372 1376 1395 1429 1468 1489 1496 1488 1482 1500 1489 1525 1582 1609 1595 1570 1581 1591 1604 1603 1639 1650 1676 1690 1714 1726 1788 1795 1778 1782 1804 1802 1790 1789 1759 1738 1676 1672 1655 1655 1662 1653 1609 1592 1548 1535 1520 1506 1479 1470 1450 1439 1380 1392 1447 1446 1453 1452 1453 1446 1411 1407 1434 1446 1384 1382 1438 1465 1510 1527 1560 1518 1524 1549 1574 1596 1593 1577 1585 1590 1610 1611 1640 1673 1675 1685 1690 1688 1710 1745 1770 1766 1800 1826 1868 1898 1951 1969 1981 1987 2023 2036 2017 1999 1977 1982 2004 2028 2026 2017 1973 1938 1885 1858 1770 1743 1770 1787 1794 1786 1738 1715 1714 1700 1654 1641 1610 1593 1589 1602 1587 1575 1571 1558 1564 1565 1517 1509 1505 1505 1499 1504 1501 1487 1510 1519 1568 1584 1599 1605 1622 1611 1611 1618 1632 1615 1603 1602 1592 1592 1565 1556 1563 1548 1570 1572 1553 1553 1549 1550 1555 1544 1569 1572 1577 1577 1579 1577 1576 1567 1573 1578 1583 1584 1582 1580 1564 1576 1574 1570 1570 1567 1569 1572 1570 1563 1551 1544 1577 1601 1621 1634 1638 1663 1703 1724 1749 1750 1711 1717 1763 1776 1793 1787 1809 1854 1888 1913 1927 1922 1885 1879 1883 1880 1880 1883 1900 1923 1956 1957 1991 1999 2017 2035 2077 2089 -9999 -9999 -9999 -9999 -9999 -9999 -9999 -9999 -9999 -9999 -9999
-9999 -9999 -9999 -9999 -9999 -9999 -9999 -9999 -9999 -9999 -9999 -9999 -9999 -9999 -9999 -9999 -9999 -9999 -9999 -9999 -9999 -9999 -9999 -9999 -9999 -9999 -9999 -9999 -9999 -9999 -9999 -9999 -9999 -9999 -9999 -9999 -9999 -9999 -9999 -9999 -9999 -9999 -9999 -9999 -9999 -9999 -9999 -9999 -9999 -9999 -9999 -9999 -9999 -9999 -9999 -9999 -9999 -9999 -9999 -9999 -9999 -9999 -9999 -9999 -9999 -9999 -9999 -9999 -9999 -9999 -9999 -9999 -9999 -9999 -9999 -9999 -9999 -9999 -9999 -9999 -9999 -9999 -9999 -9999 -9999 -9999 -9999 -9999 -9999 -9999 -9999 1426 1410 1387 1362 1332 1279 1219 1178 1154 1158 1138 1114 1106 1103 1057 1011 908 877 831 814 794 781 731 716 680 669 627 616 584 574 550 529 495 480 453 449 420 406 394 412 489 522 605 615 613 615 610 626 626 622 645 661 685 680 670 679 720 752 823 842 828 838 822 830 848 838 832 882 918 936 1027 1044 1079 1094 1145 1173 1205 1251 1299 1305 1257 1246 1218 1204 1177 1161 1130 1108 1079 1085 1080 1066 1055 1028 986 932 865 811 765 746 762 782 823 825 865 874 873 880 896 912 936 943 960 985 1015 1024 1062 1108 1130 1137 1132 1117 1141 1150 1183 1195 1203 1206 1225 1227 1242 1256 1275 1297 1333 1344 1382 1391 1398 1406 1431 1438 1467 1494 1486 1452 1356 1336 1297 1282 1236 1221 1184 1161 1128 1104 1021 1031 1021 1030 1059 1071 1121 1149 1174 1192 1216 1252 1293 1332 1355 1366 1388 1402 1422 1437 1467 1480 1500 1510 1505 1528 1523 1541 1585 1620 1616 1600 1590 1602 1621 1638 1665 1662 1689 1711 1775 1781 1816 1801 1767 1765 1785 1779 1769 1771 1736 1709 1672 1668 1653 1654 1645 1632 1601 1586 1544 1530 1516 1501 1479 1470 1460 1438 1414 1437 1468 1472 1475 1471 1459 1452 1424 1425 1457 1475 1389 1396 1469 1495 1530 1546 1571 1546 1540 1561 1598 1608 1604 1581 1596 1589 1611 1617 1652 1674 1699 1709 1702 1700 1731 1761 1777 1782 1802 1830 1879 1914 1952 1960 1976 2005 2043 2039 2023 1998 1976 1973 1994 2006 2001 1988 1952 1938 1903 1879 1811 1773 1727 1751 1762 1756 1724 1703 1685 1695 1654 1643 1609 1595 1579 1586 1575 1563 1559 1546 1550 1551 1530 1507 1488 1487 1485 1487 1492 1482 1512 1520 1563 1576 1592 1598 1606 1595 1598 1602 1613 1601 1578 1579 1569 1575 1570 1557 1556 1539 1562 1565 1552 1542 1516 1544 1548 1538 1556 1558 1561 1558 1565 1566 1566 1564 1562 1567 1572 1573 1572 1570 1560 1556 1573 1562 1562 1553 1566 1570 1565 1555 1544 1548 1594 1610 1633 1650 1654 1681 1715 1743 1762 1762 1760 1732 1756 1791 1802 1808 1811 1843 1883 1903 1933 1930 1913 1909 1908 1918 1917 1922 1938 1953 1993 2000 2025 2031 2038 2062 2089 -9999 -9999 -9999 -9999 -9999 -9999 -9999 -9999 -9999 -9999 -9999 -9999
-9999 -9999 -9999 -9999 -9999 -9999 -9999 -9999 -9999 -9999 -9999 -9999 -9999 -9999 -9999 -9999 -9999 -9999 -9999 -9999 -9999 -9999 -9999 -9999 -9999 -9999 -9999 -9999 -9999 -9999 -9999 -9999 -9999 -9999 -9999 -9999 -9999 -9999 -9999 -9999 -9999 -9999 -9999 -9999 -9999 -9999 -9999 -9999 -9999 -9999 -9999 -9999 -9999 -9999 -9999 -9999 -9999 -9999 -9999 -9999 -9999 -9999 -9999 -9999 -9999 -9999 -9999 -9999 -9999 -9999 -9999 -9999 -9999 -9999 -9999 -9999 -9999 -9999 -9999 -9999 -9999 -9999 -9999 -9999 -9999 -9999 -9999 -9999 -9999 -9999 -9999 1448 1422 1387 1363 1322 1275 1220 1212 1212 1179 1138 1111 1066 1043 1022 982 917 893 879 862 817 780 729 712 666 649 628 628 607 601 579 535 505 488 450 440 412 405 397 435 508 536 591 618 657 648 661 675 685 691 709 716 716 709 716 732 773 799 901 939 933 912 898 905 935 931 920 885 928 963 1032 1053 1106 1133 1171 1186 1224 1257 1310 1326 1284 1278 1244 1235 1188 1182 1164 1142 1096 1101 1087 1068 1052 1008 969 948 917 895 807 756 762 787 814 840 850 853 866 880 897 903 926 941 973 994 1014 1027 1055 1063 1093 1117 1125 1131 1152 1153 1183 1201 1209 1232 1253 1268 1293 1311 1311 1317 1339 1345 1377 1389 1424 1428 1438 1457 1479 1506 1518 1486 1409 1383 1342 1326 1286 1265 1210 1180 1108 1084 1056 1078 1091 1075 1046 1066 1102 1119 1162 1197 1224 1236 1285 1320 1353 1366 1382 1395 1395 1415 1442 1458 1484 1495 1537 1564 1587 1586 1598 1626 1662 1636 1676 1699 1725 1754 1790 1804 1809 1812 1818 1792 1769 1762 1743 1745 1726 1731 1717 1710 1672 1663 1655 1647 1644 1657 1642 1621 1582 1569 1537 1529 1502 1489 1465 1455 1424 1415 1445 1452 1485 1493 1497 1493 1475 1472 1477 1489 1473 1462 1428 1452 1497 1516 1557 1570 1575 1558 1572 1591 1617 1631 1618 1604 1619 1622 1628 1645 1703 1717 1741 1748 1772 1765 1782 1790 1814 1825 1852 1871 1928 1923 1959 1977 2010 2014 2027 2021 2014 2014 1999 1983 1940 1937 1924 1907 1871 1861 1847 1843 1822 1785 1701 1674 1701 1690 1671 1668 1652 1638 1624 1624 1605 1587 1541 1549 1549 1548 1513 1526 1509 1519 1514 1508 1506 1489 1460 1469 1469 1470 1504 1512 1553 1561 1557 1573 1590 1591 1539 1547 1577 1581 1543 1528 1527 1536 1550 1552 1545 1542 1539 1549 1548 1543 1528 1502 1525 1535 1533 1531 1522 1523 1542 1546 1550 1549 1540 1541 1543 1551 1539 1533 1556 1534 1559 1551 1536 1548 1539 1540 1533 1548 1587 1601 1623 1654 1702 1730 1746 1710 1709 1737 1788 1792 1799 1799 1786 1814 1817 1827 1840 1846 1844 1869 1921 1951 1989 1986 1963 1938 1973 1984 2009 2014 2037 2048 2066 2067 2088 2092 -9999 -9999 -9999 -9999 -9999 -9999 -9999 -9999 -9999 -9999 -9999 -9999 -9999
-9999 -9999 -9999 -9999 -9999 -9999 -9999 -9999 -9999 -9999 -9999 -9999 -9999 -9999 -9999 -9999 -9999 -9999 -9999 -9999 -9999 -9999 -9999 -9999 -9999 -9999 -9999 -9999 -9999 -9999 -9999 -9999 -9999 -9999 -9999 -9999 -9999 -9999 -9999 -9999 -9999 -9999 -9999 -9999 -9999 -9999 -9999 -9999 -9999 -9999 -9999 -9999 -9999 -9999 -9999 -9999 -9999 -9999 -9999 -9999 -9999 -9999 -9999 -9999 -9999 -9999 -9999 -9999 -9999 -9999 -9999 -9999 -9999 -9999 -9999 -9999 -9999 -9999 -9999 -9999 -9999 -9999 -9999 -9999 -9999 -9999 -9999 -9999 -9999 -9999 -9999 1449 1426 1393 1366 1323 1277 1237 1242 1217 1181 1138 1109 1074 1048 1017 973 922 909 900 874 825 781 729 710 676 656 645 633 626 613 586 542 498 483 440 426 411 402 402 441 499 525 593 618 674 681 696 695 713 714 714 721 720 706 745 759 800 812 908 948 970 942 939 945 967 970 930 910 927 943 1025 1047 1125 1145 1178 1196 1235 1261 1310 1325 1316 1302 1264 1255 1216 1199 1191 1166 1112 1105 1080 1069 1041 1028 1014 1001 937 921 868 804 763 795 827 843 862 869 879 879 891 903 919 944 977 993 1015 1033 1051 1063 1096 1116 1130 1125 1156 1160 1181 1203 1230 1240 1253 1265 1302 1310 1336 1334 1350 1364 1387 1397 1430 1439 1448 1459 1489 1514 1545 1512 1435 1405 1362 1348 1271 1255 1207 1184 1116 1077 1060 1088 1109 1097 1054 1063 1090 1113 1155 1187 1231 1253 1302 1343 1361 1362 1364 1374 1384 1403 1439 1455 1481 1494 1535 1564 1594 1622 1626 1650 1693 1678 1708 1729 1748 1767 1805 1820 1835 1834 1789 1776 1765 1759 1740 1737 1714 1713 1696 1684 1651 1652 1646 1639 1649 1653 1641 1625 1585 1571 1533 1523 1501 1485 1462 1448 1423 1439 1471 1469 1487 1501 1502 1497 1486 1484 1504 1512 1504 1494 1434 1466 1517 1515 1555 1568 1579 1563 1585 1600 1642 1646 1624 1616 1626 1630 1639 1656 1713 1727 1760 1764 1795 1790 1802 1813 1827 1838 1878 1913 1945 1932 1977 2005 2014 2008 2010 2011 2003 2000 2001 1995 1953 1919 1887 1874 1845 1826 1829 1827 1809 1775 1705 1666 1667 1660 1644 1644 1646 1620 1610 1603 1587 1576 1550 1532 1523 1523 1507 1522 1503 1517 1510 1502 1498 1495 1451 1459 1459 1489 1515 1536 1556 1554 1550 1564 1579 1574 1530 1535 1563 1566 1550 1527 1518 1528 1542 1543 1538 1539 1529 1541 1538 1538 1531 1505 1525 1524 1525 1520 1514 1527 1537 1541 1541 1541 1535 1537 1542 1548 1518 1534 1526 1537 1549 1546 1532 1523 1525 1526 1538 1562 1595 1613 1639 1656 1707 1750 1778 1748 1724 1739 1785 1808 1821 1818 1802 1836 1839 1836 1852 1865 1844 1880 1935 1969 1984 1989 1987 1970 1984 2001 2032 2038 2049 2060 2076 2082 2094 -9999 -9999 -9999 -9999 -9999 -9999 -9999 -9999 -9999 -9999 -9999 -9999 -9999 -9999
-9999 -9999 -9999 -9999 -9999 -9999 -9999 -9999 -9999 -9999 -9999 -9999 -9999 -9999 -9999 -9999 -9999 -9999 -9999 -9999 -9999 -9999 -9999 -9999 -9999 -9999 -9999 -9999 -9999 -9999 -9999 -9999 -9999 -9999 -9999 -9999 -9999 -9999 -9999 -9999 -9999 -9999 -9999 -9999 -9999 -9999 -9999 -9999 -9999 -9999 -9999 -9999 -9999 -9999 -9999 -9999 -9999 -9999 -9999 -9999 -9999 -9999 -9999 -9999 -9999 -9999 -9999 -9999 -9999 -9999 -9999 -9999 -9999 -9999 -9999 -9999 -9999 -9999 -9999 -9999 -9999 -9999 -9999 -9999 -9999 -9999 -9999 -9999 -9999 -9999 -9999 1476 1462 1421 1410 1374 1331 1278 1254 1224 1198 1145 1118 1079 1051 1022 987 953 959 931 885 821 790 749 744 698 693 678 663 635 611 577 546 505 474 434 416 402 401 436 481 522 538 574 585 634 649 721 746 766 765 738 732 728 735 773 784 832 868 961 988 1039 1033 1015 1036 1015 1003 969 965 923 926 1000 1038 1116 1142 1177 1188 1233 1256 1298 1318 1350 1343 1300 1288 1242 1254 1219 1195 1152 1134 1098 1086 1073 1067 1053 1040 1008 983 896 867 821 804 826 836 859 869 877 883 904 917 919 941 977 995 1017 1029 1039 1071 1096 1113 1128 1139 1163 1174 1186 1204 1220 1237 1265 1275 1299 1308 1350 1357 1356 1352 1392 1413 1451 1462 1486 1488 1511 1533 1579 1548 1474 1451 1374 1343 1257 1235 1194 1169 1119 1084 1075 1091 1153 1156 1105 1072 1109 1120 1144 1179 1231 1244 1298 1329 1333 1322 1345 1352 1378 1398 1437 1453 1482 1497 1515 1555 1604 1659 1705 1722 1737 1739 1746 1754 1761 1773 1798 1821 1839 1827 1767 1761 1746 1755 1734 1721 1701 1689 1669 1659 1642 1629 1628 1622 1636 1631 1622 1612 1579 1560 1526 1510 1472 1458 1434 1438 1448 1467 1498 1508 1510 1522 1530 1526 1520 1530 1552 1531 1544 1536 1479 1480 1553 1556 1551 1563 1597 1593 1602 1618 1648 1651 1641 1639 1640 1646 1664 1681 1726 1741 1772 1780 1822 1831 1859 1868 1894 1903 1950 1966 1939 1948 1995 2011 2013 2005 1983 1983 1977 1979 1967 1987 1981 1961 1916 1877 1816 1781 1758 1750 1741 1716 1722 1704 1637 1629 1622 1627 1631 1618 1597 1587 1574 1563 1544 1544 1506 1482 1470 1478 1475 1490 1492 1488 1472 1459 1447 1442 1486 1506 1530 1540 1531 1529 1540 1548 1564 1558 1526 1525 1537 1542 1537 1534 1496 1510 1530 1531 1515 1523 1520 1528 1530 1528 1524 1519 1487 1495 1507 1499 1517 1521 1532 1533 1533 1528 1519 1523 1522 1517 1519 1518 1505 1504 1508 1511 1515 1525 1561 1562 1578 1593 1635 1642 1692 1725 1735 1771 1822 1784 1791 1824 1832 1844 1872 1871 1848 1879 1873 1874 1911 1921 1886 1862 1905 1927 1932 1953 1988 2001 2004 2035 2060 2064 2082 -9999 -9999 -9999 -9999 -9999 -9999 -9999 -9999 -9999 -9999 -9999 -9999 -9999 -9999 -9999 -9999 -9999 -9999
-9999 -9999 -9999 -9999 -9999 -9999 -9999 -9999 -9999 -9999 -9999 -9999 -9999 -9999 -9999 -9999 -9999 -9999 -9999 -9999 -9999 -9999 -9999 -9999 -9999 -9999 -9999 -9999 -9999 -9999 -9999 -9999 -9999 -9999 -9999 -9999 -9999 -9999 -9999 -9999 -9999 -9999 -9999 -9999 -9999 -9999 -9999 -9999 -9999 -9999 -9999 -9999 -9999 -9999 -9999 -9999 -9999 -9999 -9999 -9999 -9999 -9999 -9999 -9999 -9999 -9999 -9999 -9999 -9999 -9999 -9999 -9999 -9999 -9999 -9999 -9999 -9999 -9999 -9999 -9999 -9999 -9999 -9999 -9999 -9999 -9999 -9999 -9999 -9999 -9999 -9999 1495 1483 1441 1425 1376 1330 1279 1265 1224 1205 1153 1130 1101 1068 1032 1005 992 1015 946 889 827 793 778 773 720 710 688 663 623 592 574 545 505 471 423 415 401 400 443 476 519 528 553 570 625 660 709 742 778 775 746 749 753 768 801 810 862 895 990 1020 1070 1065 1057 1060 1026 1012 998 996 937 925 989 1020 1091 1117 1165 1180 1218 1243 1290 1315 1347 1358 1321 1312 1277 1269 1215 1198 1161 1139 1101 1095 1079 1072 1054 1040 1041 1006 926 894 810 810 830 847 870 876 886 881 903 917 932 951 973 991 1019 1027 1037 1071 1096 1110 1133 1139 1167 1177 1194 1210 1223 1241 1271 1280 1310 1317 1354 1371 1368 1368 1389 1416 1448 1459 1487 1500 1524 1542 1587 1571 1490 1458 1375 1348 1257 1233 1193 1176 1120 1087 1085 1094 1150 1174 1155 1111 1117 1127 1151 1184 1221 1236 1290 1322 1304 1306 1319 1345 1392 1405 1427 1444 1477 1495 1531 1555 1594 1677 1714 1745 1773 1785 1756 1765 1766 1779 1802 1816 1824 1806 1759 1745 1733 1742 1730 1716 1699 1684 1667 1657 1646 1631 1613 1624 1628 1622 1607 1596 1568 1553 1515 1499 1444 1445 1475 1487 1463 1458 1517 1518 1525 1537 1560 1553 1531 1539 1554 1536 1549 1542 1504 1490 1571 1574 1570 1579 1605 1606 1603 1611 1647 1649 1647 1649 1656 1656 1671 1680 1728 1742 1777 1790 1830 1847 1890 1911 1938 1945 1979 1971 1963 1965 1995 2009 2011 2001 1967 1963 1967 1970 1960 1969 1970 1970 1950 1908 1841 1803 1743 1717 1707 1691 1701 1687 1644 1614 1613 1619 1633 1617 1599 1588 1575 1564 1544 1536 1508 1494 1474 1453 1457 1475 1482 1473 1457 1445 1435 1438 1488 1499 1520 1525 1520 1521 1541 1545 1555 1546 1501 1512 1523 1529 1528 1525 1491 1495 1524 1524 1493 1497 1517 1524 1527 1524 1521 1513 1486 1495 1499 1493 1513 1517 1526 1527 1523 1521 1517 1511 1497 1492 1497 1498 1509 1522 1526 1532 1548 1552 1576 1583 1587 1597 1645 1676 1750 1773 1787 1806 1840 1821 1821 1857 1864 1886 1894 1889 1861 1902 1895 1887 1937 1946 1911 1876 1885 1909 1917 1932 1982 2014 2036 2035 2060 2074 2084 -9999 -9999 -9999 -9999 -9999 -9999 -9999 -9999 -9999 -9999 -9999 -9999 -9999 -9999 -9999 -9999 -9999 -9999
-9999 -9999 -9999 -9999 -9999 -9999 -9999 -9999 -9999 -9999 -9999 -9999 -9999 -9999 -9999 -9999 -9999 -9999 -9999 -9999 -9999 -9999 -9999 -9999 -9999 -9999 -9999 -9999 -9999 -9999 -9999 -9999 -9999 -9999 -9999 -9999 -9999 -9999 -9999 -9999 -9999 -9999 -9999 -9999 -9999 -9999 -9999 -9999 -9999 -9999 -9999 -9999 -9999 -9999 -9999 -9999 -9999 -9999 -9999 -9999 -9999 -9999 -9999 -9999 -9999 -9999 -9999 -9999 -9999 -9999 -9999 -9999 -9999 -9999 -9999 -9999 -9999 -9999 -9999 -9999 -9999 -9999 -9999 -9999 -9999 -9999 -9999 -9999 -9999 -9999 -9999 1503 1499 1449 1434 1375 1338 1307 1290 1233 1213 1223 1231 1195 1171 1089 1058 1079 1040 924 896 855 844 802 777 746 729 664 632 614 585 537 516 494 462 424 413 402 401 442 480 508 522 553 565 628 668 706 744 800 828 802 801 832 862 895 906 905 944 1041 1068 1122 1117 1073 1060 1039 1035 1057 1055 1018 996 976 997 1076 1106 1150 1167 1208 1227 1274 1296 1342 1367 1377 1361 1284 1273 1242 1234 1197 1174 1136 1130 1115 1103 1086 1066 1070 1039 958 927 838 808 842 850 867 874 891 900 917 930 961 968 984 999 1024 1028 1052 1081 1104 1122 1142 1140 1157 1168 1190 1211 1241 1259 1275 1292 1317 1341 1378 1385 1392 1395 1395 1413 1443 1464 1489 1503 1541 1568 1587 1558 1486 1449 1381 1357 1278 1253 1197 1179 1123 1091 1106 1120 1153 1165 1195 1187 1122 1125 1152 1165 1184 1195 1238 1246 1285 1291 1312 1329 1370 1397 1444 1454 1478 1504 1557 1579 1601 1665 1726 1758 1815 1834 1825 1820 1847 1849 1842 1831 1802 1766 1743 1727 1719 1723 1714 1708 1688 1677 1662 1649 1628 1619 1621 1620 1600 1585 1568 1552 1535 1523 1475 1452 1469 1487 1538 1535 1502 1544 1555 1549 1569 1565 1591 1576 1572 1570 1560 1554 1561 1571 1566 1533 1568 1584 1598 1603 1623 1626 1629 1628 1626 1636 1655 1661 1673 1676 1693 1701 1734 1757 1795 1809 1845 1871 1932 1957 2010 2006 1972 1960 1985 1973 1990 2002 1992 1981 1956 1939 1919 1931 1916 1914 1896 1891 1879 1863 1832 1818 1775 1738 1676 1654 1661 1638 1616 1608 1599 1598 1607 1614 1601 1577 1553 1546 1543 1532 1505 1497 1477 1464 1434 1474 1443 1442 1423 1434 1460 1476 1474 1483 1485 1490 1512 1524 1533 1536 1532 1525 1485 1475 1505 1516 1510 1515 1479 1476 1509 1500 1483 1494 1518 1519 1520 1520 1517 1514 1479 1484 1485 1495 1512 1515 1498 1503 1498 1495 1488 1485 1499 1511 1560 1564 1570 1566 1583 1589 1600 1599 1577 1601 1635 1665 1708 1737 1815 1846 1880 1875 1903 1905 1896 1900 1954 1968 1946 1938 1909 1919 1936 1925 1945 1977 1959 1932 1923 1926 1949 1950 1968 1987 2030 2048 2061 2074 -9999 -9999 -9999 -9999 -9999 -9999 -9999 -9999 -9999 -9999 -9999 -9999 -9999 -9999 -9999 -9999 -9999 -9999 -9999
-9999 -9999 -9999 -9999 -9999 -9999 -9999 -9999 -9999 -9999 -9999 -9999 -9999 -9999 -9999 -9999 -9999 -9999 -9999 -9999 -9999 -9999 -9999 -9999 -9999 -9999 -9999 -9999 -9999 -9999 -9999 -9999 -9999 -9999 -9999 -9999 -9999 -9999 -9999 -9999 -9999 -9999 -9999 -9999 -9999 -9999 -9999 -9999 -9999 -9999 -9999 -9999 -9999 -9999 -9999 -9999 -9999 -9999 -9999 -9999 -9999 -9999 -9999 -9999 -9999 -9999 -9999 -9999 -9999 -9999 -9999 -9999 -9999 -9999 -9999 -9999 -9999 -9999 -9999 -9999 -9999 -9999 -9999 -9999 -9999 -9999 -9999 -9999 -9999 -9999 -9999 1499 1487 1442 1435 1379 1367 1314 1304 1254 1240 1281 1252 1191 1161 1082 1063 1055 1023 929 913 864 844 801 778 734 700 643 623 603 572 535 513 482 454 426 403 402 406 446 487 511 526 545 567 629 667 711 751 805 840 839 836 879 915 942 950 933 948 1039 1070 1132 1129 1087 1074 1055 1060 1086 1083 1055 1040 982 990 1078 1107 1151 1155 1194 1206 1262 1291 1344 1367 1384 1371 1295 1280 1259 1242 1221 1200 1146 1142 1138 1135 1107 1091 1077 1037 960 935 846 826 856 859 864 869 889 902 931 935 966 974 989 1000 1026 1042 1056 1070 1098 1124 1145 1142 1159 1178 1194 1210 1251 1267 1293 1299 1327 1336 1386 1385 1397 1402 1408 1420 1440 1461 1495 1507 1558 1583 1578 1538 1482 1448 1394 1370 1289 1263 1209 1183 1114 1101 1120 1133 1162 1167 1205 1206 1167 1143 1152 1168 1184 1196 1221 1234 1311 1333 1375 1387 1429 1447 1466 1462 1497 1514 1571 1572 1625 1673 1725 1759 1831 1849 1862 1859 1865 1875 1865 1817 1781 1756 1737 1723 1708 1709 1709 1706 1688 1677 1656 1646 1624 1612 1609 1606 1582 1563 1543 1527 1515 1500 1459 1480 1517 1539 1550 1542 1511 1558 1585 1573 1583 1582 1602 1598 1584 1580 1568 1562 1565 1577 1584 1549 1563 1581 1604 1611 1628 1632 1638 1635 1636 1627 1657 1667 1683 1688 1714 1721 1746 1774 1811 1818 1864 1887 1956 1975 2006 2003 1968 1963 1985 1971 1978 1990 1971 1961 1938 1926 1889 1912 1894 1888 1861 1853 1836 1827 1803 1794 1752 1731 1674 1651 1647 1631 1603 1599 1585 1580 1591 1599 1594 1581 1546 1530 1537 1533 1508 1489 1473 1458 1433 1462 1456 1430 1422 1436 1446 1455 1474 1487 1500 1510 1517 1519 1526 1524 1521 1519 1473 1463 1502 1510 1499 1510 1468 1479 1503 1486 1491 1506 1514 1514 1516 1517 1514 1512 1483 1475 1476 1490 1506 1502 1481 1472 1474 1477 1482 1483 1520 1521 1563 1570 1584 1587 1599 1604 1613 1614 1590 1599 1652 1669 1734 1758 1841 1872 1930 1929 1953 1951 1942 1922 1976 1990 1959 1951 1941 1930 1973 1959 1952 1994 1978 1950 1953 1948 1966 1974 1993 1999 2030 2047 2068 -9999 -9999 -9999 -9999 -9999 -9999 -9999 -9999 -9999 -9999 -9999 -9999 -9999 -9999 -9999 -9999 -9999 -9999 -9999 -9999
-9999 -9999 -9999 -9999 -9999 -9999 -9999 -9999 -9999 -9999 -9999 -9999 -9999 -9999 -9999 -9999 -9999 -9999 -9999 -9999 -9999 -9999 -9999 -9999 -9999 -9999 -9999 -9999 -9999 -9999 -9999 -9999 -9999 -9999 -9999 -9999 -9999 -9999 -9999 -9999 -9999 -9999 -9999 -9999 -9999 -9999 -9999 -9999 -9999 -9999 -9999 -9999 -9999 -9999 -9999 -9999 -9999 -9999 -9999 -9999 -9999 -9999 -9999 -9999 -9999 -9999 -9999 -9999 -9999 -9999 -9999 -9999 -9999 -9999 -9999 -9999 -9999 -9999 -9999 -9999 -9999 -9999 -9999 -9999 -9999 -9999 -9999 -9999 -9999 -9999 -9999 1518 1506 1486 1458 1423 1399 1358 1354 1373 1351 1277 1234 1156 1115 1056 1043 1023 999 924 907 874 853 798 776 721 707 667 657 644 627 596 548 520 487 414 406 411 410 441 477 485 504 526 562 627 662 707 745 816 866 956 978 972 1003 1028 1023 1016 1020 1057 1107 1169 1158 1116 1113 1130 1146 1152 1145 1119 1108 1083 1052 1038 1060 1106 1128 1161 1194 1242 1268 1315 1344 1400 1401 1356 1339 1303 1294 1266 1248 1206 1185 1187 1173 1156 1146 1133 1086 1019 992 902 859 856 870 875 882 904 908 928 949 986 985 1006 1015 1038 1051 1063 1084 1113 1133 1155 1148 1165 1181 1209 1219 1247 1263 1281 1293 1327 1351 1368 1386 1406 1416 1438 1445 1445 1459 1483 1516 1566 1609 1566 1516 1470 1439 1405 1379 1297 1256 1215 1196 1150 1137 1154 1172 1181 1197 1229 1238 1252 1230 1203 1190 1179 1181 1206 1234 1358 1376 1423 1434 1466 1477 1499 1510 1555 1571 1605 1623 1663 1691 1729 1747 1815 1831 1868 1875 1892 1891 1824 1801 1755 1744 1728 1717 1690 1687 1685 1690 1695 1662 1647 1624 1597 1582 1572 1550 1527 1511 1497 1494 1493 1492 1532 1554 1587 1584 1574 1566 1545 1534 1558 1580 1604 1601 1607 1610 1605 1592 1592 1595 1579 1581 1593 1577 1576 1585 1605 1613 1664 1684 1706 1710 1668 1653 1658 1669 1711 1715 1754 1771 1795 1815 1864 1870 1907 1923 1959 1965 1983 1971 1964 1976 1960 1941 1926 1935 1920 1903 1869 1852 1825 1868 1858 1823 1803 1789 1771 1760 1740 1738 1716 1702 1658 1642 1615 1606 1586 1578 1564 1553 1535 1554 1564 1562 1550 1535 1494 1517 1506 1503 1484 1458 1434 1432 1438 1408 1454 1475 1485 1485 1488 1494 1499 1500 1505 1505 1506 1506 1507 1502 1460 1449 1485 1493 1497 1496 1461 1481 1460 1479 1511 1515 1504 1492 1507 1513 1509 1504 1482 1464 1470 1480 1481 1475 1469 1477 1497 1514 1532 1537 1509 1522 1540 1568 1580 1586 1596 1617 1635 1640 1649 1645 1660 1676 1714 1739 1871 1906 1986 2019 2030 2042 2030 2004 2056 2078 2024 2018 2008 1994 1991 1999 1999 1995 1984 1986 1995 1997 1998 2005 2028 2039 2066 -9999 -9999 -9999 -9999 -9999 -9999 -9999 -9999 -9999 -9999 -9999 -9999 -9999 -9999 -9999 -9999 -9999 -9999 -9999 -9999 -9999 -9999
-9999 -9999 -9999 -9999 -9999 -9999 -9999 -9999 -9999 -9999 -9999 -9999 -9999 -9999 -9999 -9999 -9999 -9999 -9999 -9999 -9999 -9999 -9999 -9999 -9999 -9999 -9999 -9999 -9999 -9999 -9999 -9999 -9999 -9999 -9999 -9999 -9999 -9999 -9999 -9999 -9999 -9999 -9999 -9999 -9999 -9999 -9999 -9999 -9999 -9999 -9999 -9999 -9999 -9999 -9999 -9999 -9999 -9999 -9999 -9999 -9999 -9999 -9999 -9999 -9999 -9999 -9999 -9999 -9999 -9999 -9999 -9999 -9999 -9999 -9999 -9999 -9999 -9999 -9999 -9999 -9999 -9999 -9999 -9999 -9999 -9999 -9999 -9999 -9999 -9999 -9999 1537 1526 1483 1470 1442 1415 1387 1393 1379 1348 1270 1232 1145 1105 1036 1023 1003 1002 929 912 873 855 809 808 761 741 697 696 677 664 602 560 521 491 432 407 409 411 451 465 485 500 536 572 638 678 713 751 816 864 962 1002 1026 1039 1075 1047 1048 1051 1094 1126 1177 1146 1133 1132 1158 1174 1171 1159 1133 1126 1096 1067 1057 1044 1068 1104 1151 1184 1236 1255 1304 1334 1395 1411 1382 1367 1333 1328 1273 1260 1228 1222 1213 1197 1175 1170 1127 1083 1032 1007 906 882 858 863 887 884 906 915 930 955 996 1000 1017 1024 1043 1059 1083 1094 1136 1147 1195 1176 1162 1181 1215 1222 1235 1261 1282 1292 1323 1341 1353 1377 1401 1425 1457 1459 1456 1466 1494 1520 1570 1611 1573 1519 1473 1438 1406 1366 1288 1264 1219 1210 1173 1164 1162 1187 1198 1203 1237 1245 1277 1266 1242 1218 1207 1201 1205 1234 1356 1373 1415 1425 1460 1460 1498 1511 1551 1562 1601 1620 1646 1684 1718 1740 1807 1809 1864 1873 1890 1878 1814 1794 1747 1739 1718 1706 1685 1682 1679 1694 1685 1653 1631 1614 1592 1582 1568 1544 1528 1510 1506 1504 1494 1512 1548 1569 1589 1593 1585 1581 1559 1550 1542 1568 1596 1604 1607 1612 1611 1598 1596 1599 1582 1586 1599 1575 1572 1583 1606 1618 1680 1705 1737 1727 1676 1658 1672 1679 1719 1723 1767 1782 1804 1822 1893 1910 1940 1939 1959 1967 1963 1953 1969 1979 1948 1925 1897 1908 1897 1879 1839 1823 1810 1858 1852 1827 1773 1760 1737 1725 1707 1708 1692 1680 1650 1635 1623 1615 1587 1581 1562 1554 1535 1535 1555 1558 1547 1538 1495 1487 1491 1486 1484 1465 1434 1416 1434 1406 1453 1466 1471 1479 1481 1488 1494 1500 1502 1502 1503 1503 1502 1500 1464 1445 1471 1466 1493 1494 1452 1470 1462 1484 1508 1512 1497 1481 1501 1501 1502 1498 1483 1464 1473 1469 1455 1461 1481 1495 1523 1524 1547 1551 1519 1508 1549 1564 1593 1597 1606 1619 1642 1651 1684 1684 1663 1685 1714 1738 1895 1935 1993 2017 2071 2066 2061 2035 2080 2099 2048 2037 2022 2004 1991 1999 2010 2000 1989 1991 1999 2002 2006 2014 2045 2063 -9999 -9999 -9999 -9999 -9999 -9999 -9999 -9999 -9999 -9999 -9999 -9999 -9999 -9999 -9999 -9999 -9999 -9999 -9999 -9999 -9999 -9999 -9999
-9999 -9999 -9999 -9999 -9999 -9999 -9999 -9999 -9999 -9999 -9999 -9999 -9999 -9999 -9999 -9999 -9999 -9999 -9999 -9999 -9999 -9999 -9999 -9999 -9999 -9999 -9999 -9999 -9999 -9999 -9999 -9999 -9999 -9999 -9999 -9999 -9999 -9999 -9999 -9999 -9999 -9999 -9999 -9999 -9999 -9999 -9999 -9999 -9999 -9999 -9999 -9999 -9999 -9999 -9999 -9999 -9999 -9999 -9999 -9999 -9999 -9999 -9999 -9999 -9999 -9999 -9999 -9999 -9999 -9999 -9999 -9999 -9999 -9999 -9999 -9999 -9999 -9999 -9999 -9999 -9999 -9999 -9999 -9999 -9999 -9999 -9999 -9999 -9999 -9999 -9999 1556 1543 1524 1515 1487 1503 1464 1450 1372 1339 1272 1222 1117 1081 1019 1010 992 988 943 925 885 862 855 858 794 764 730 717 680 666 615 592 521 481 413 410 413 415 441 450 481 496 545 583 671 686 737 777 830 878 951 997 1001 1045 1048 1050 1092 1127 1169 1189 1190 1175 1170 1156 1180 1203 1192 1176 1161 1154 1106 1087 1093 1086 1074 1063 1133 1191 1230 1250 1294 1319 1390 1416 1414 1407 1383 1374 1334 1333 1298 1280 1248 1244 1206 1188 1128 1089 1030 1010 965 955 857 861 895 898 916 929 960 996 995 1004 1031 1039 1069 1080 1116 1135 1169 1181 1229 1235 1167 1192 1210 1219 1240 1252 1280 1301 1314 1330 1352 1367 1396 1413 1465 1474 1481 1489 1508 1539 1577 1617 1575 1527 1486 1447 1424 1402 1337 1306 1276 1234 1198 1195 1169 1192 1205 1219 1235 1267 1296 1318 1289 1276 1257 1237 1212 1226 1316 1336 1389 1402 1429 1437 1484 1499 1544 1556 1576 1590 1633 1667 1705 1731 1804 1812 1845 1857 1856 1825 1784 1768 1746 1734 1698 1690 1676 1677 1730 1720 1680 1649 1626 1616 1595 1582 1563 1543 1534 1531 1521 1520 1529 1542 1560 1575 1589 1596 1605 1602 1594 1587 1573 1553 1584 1603 1613 1619 1617 1606 1615 1610 1592 1600 1613 1610 1581 1599 1631 1649 1708 1730 1742 1724 1688 1671 1694 1699 1726 1733 1791 1808 1834 1842 1933 1942 1955 1953 1945 1941 1922 1934 1954 1949 1924 1903 1852 1858 1863 1850 1793 1778 1781 1820 1804 1796 1762 1747 1681 1656 1651 1653 1650 1639 1614 1600 1594 1597 1596 1588 1565 1550 1520 1509 1541 1545 1531 1520 1513 1499 1463 1452 1447 1445 1446 1406 1406 1402 1444 1460 1482 1483 1484 1491 1495 1498 1495 1492 1491 1491 1492 1489 1467 1437 1457 1479 1481 1472 1437 1455 1483 1488 1496 1491 1483 1467 1484 1487 1481 1466 1464 1460 1452 1451 1465 1470 1490 1496 1543 1553 1564 1565 1574 1552 1589 1599 1618 1620 1628 1635 1651 1663 1708 1720 1712 1714 1735 1777 1912 1968 2031 2051 2115 2128 2118 2110 2107 2116 2075 2058 2030 2007 2005 2012 2018 2020 2015 2014 2026 2031 2045 2049 2058 -9999 -9999 -9999 -9999 -9999 -9999 -9999 -9999 -9999 -9999 -9999 -9999 -9999 -9999 -9999 -9999 -9999 -9999 -9999 -9999 -9999 -9999 -9999 -9999
-9999 -9999 -9999 -9999 -9999 -9999 -9999 -9999 -9999 -9999 -9999 -9999 -9999 -9999 -9999 -9999 -9999 -9999 -9999 -9999 -9999 -9999 -9999 -9999 -9999 -9999 -9999 -9999 -9999 -9999 -9999 -9999 -9999 -9999 -9999 -9999 -9999 -9999 -9999 -9999 -9999 -9999 -9999 -9999 -9999 -9999 -9999 -9999 -9999 -9999 -9999 -9999 -9999 -9999 -9999 -9999 -9999 -9999 -9999 -9999 -9999 -9999 -9999 -9999 -9999 -9999 -9999 -9999 -9999 -9999 -9999 -9999 -9999 -9999 -9999 -9999 -9999 -9999 -9999 -9999 -9999 -9999 -9999 -9999 -9999 -9999 -9999 -9999 -9999 -9999 -9999 -9999 1559 1550 1527 1499 1527 1479 1448 1370 1338 1262 1215 1111 1070 1018 1011 990 977 942 932 886 875 869 869 777 751 713 700 668 652 617 592 508 480 445 418 414 416 443 447 474 489 532 572 656 664 726 762 802 857 909 956 967 1010 1017 1024 1064 1111 1212 1222 1200 1183 1181 1184 1204 1215 1203 1185 1168 1149 1122 1110 1102 1102 1091 1083 1117 1182 1226 1244 1299 1325 1391 1411 1438 1433 1411 1396 1368 1352 1327 1323 1277 1260 1212 1186 1141 1092 1035 1015 980 961 884 858 888 899 923 934 983 1002 1009 1020 1043 1053 1076 1091 1119 1141 1169 1192 1238 1249 1171 1194 1210 1219 1238 1248 1290 1310 1343 1343 1369 1376 1379 1408 1455 1462 1489 1494 1510 1542 1579 1607 1583 1532 1489 1459 1440 1415 1356 1325 1283 1237 1214 1207 1172 1189 1217 1221 1243 1284 1309 1329 1329 1304 1283 1268 1234 1224 1310 1333 1370 1389 1413 1430 1471 1493 1544 1548 1580 1595 1632 1650 1701 1728 1799 1818 1844 1855 1816 1800 1774 1764 1745 1735 1701 1692 1673 1691 1759 1733 1687 1654 1625 1616 1590 1579 1572 1560 1542 1537 1531 1530 1549 1555 1570 1587 1603 1606 1615 1613 1599 1593 1581 1557 1589 1603 1618 1625 1625 1616 1624 1618 1607 1612 1635 1644 1606 1601 1639 1658 1717 1729 1735 1723 1687 1681 1702 1712 1739 1746 1812 1830 1848 1861 1938 1960 1966 1953 1938 1926 1915 1934 1929 1922 1913 1901 1818 1823 1830 1830 1783 1751 1770 1791 1773 1768 1738 1726 1696 1676 1621 1623 1631 1621 1596 1587 1587 1587 1588 1588 1572 1553 1528 1506 1531 1535 1531 1523 1489 1485 1474 1454 1435 1431 1449 1405 1398 1410 1447 1468 1484 1487 1489 1490 1493 1493 1485 1484 1484 1487 1483 1472 1451 1434 1465 1473 1473 1462 1432 1464 1480 1488 1492 1486 1470 1465 1469 1466 1449 1438 1441 1444 1450 1463 1470 1478 1515 1523 1542 1557 1567 1572 1585 1581 1577 1602 1619 1623 1634 1644 1658 1669 1710 1723 1733 1736 1748 1767 1932 1980 2056 2069 2121 2136 2145 2134 2115 2103 2073 2057 2031 2016 2017 2024 2008 2014 2030 2037 2053 2059 2069 2069 -9999 -9999 -9999 -9999 -9999 -9999 -9999 -9999 -9999 -9999 -9999 -9999 -9999 -9999 -9999 -9999 -9999 -9999 -9999 -9999 -9999 -9999 -9999 -9999 -9999
-9999 -9999 -9999 -9999 -9999 -9999 -9999 -9999 -9999 -9999 -9999 -9999 -9999 -9999 -9999 -9999 -9999 -9999 -9999 -9999 -9999 -9999 -9999 -9999 -9999 -9999 -9999 -9999 -9999 -9999 -9999 -9999 -9999 -9999 -9999 -9999 -9999 -9999 -9999 -9999 -9999 -9999 -9999 -9999 -9999 -9999 -9999 -9999 -9999 -9999 -9999 -9999 -9999 -9999 -9999 -9999 -9999 -9999 -9999 -9999 -9999 -9999 -9999 -9999 -9999 -9999 -9999 -9999 -9999 -9999 -9999 -9999 -9999 -9999 -9999 -9999 -9999 -9999 -9999 -9999 -9999 -9999 -9999 -9999 -9999 -9999 -9999 -9999 -9999 -9999 -9999 1554 1551 1548 1549 1545 1525 1453 1429 1355 1326 1247 1187 1100 1068 1033 1025 1014 1001 949 935 901 896 884 850 759 730 690 674 635 625 591 551 518 489 450 439 417 417 447 450 470 480 543 552 571 587 637 673 739 775 819 860 912 944 980 998 1038 1084 1201 1244 1225 1216 1220 1236 1235 1239 1214 1200 1183 1177 1148 1141 1134 1121 1114 1101 1094 1160 1207 1242 1273 1321 1380 1403 1464 1471 1454 1443 1416 1408 1387 1375 1335 1311 1240 1217 1146 1109 1067 1060 1018 1005 932 911 900 905 942 952 1003 1004 1027 1036 1065 1061 1096 1107 1137 1164 1197 1208 1231 1248 1260 1221 1211 1223 1240 1251 1291 1302 1345 1350 1368 1377 1385 1404 1434 1439 1462 1478 1511 1533 1550 1585 1596 1561 1525 1493 1464 1445 1384 1341 1295 1251 1242 1225 1182 1193 1231 1259 1282 1303 1347 1383 1377 1380 1347 1332 1286 1276 1306 1327 1366 1380 1417 1448 1490 1496 1523 1538 1586 1602 1609 1627 1684 1716 1811 1821 1817 1814 1779 1777 1756 1750 1737 1730 1694 1686 1689 1702 1738 1729 1699 1692 1691 1687 1627 1620 1615 1586 1566 1563 1550 1558 1579 1596 1614 1613 1641 1642 1634 1631 1617 1614 1592 1582 1601 1616 1627 1638 1643 1642 1645 1643 1640 1646 1657 1658 1623 1602 1668 1690 1712 1715 1719 1710 1694 1705 1709 1732 1763 1780 1829 1847 1914 1926 1978 1986 1969 1952 1913 1901 1910 1904 1888 1878 1866 1866 1809 1782 1764 1772 1746 1713 1720 1730 1708 1702 1680 1674 1667 1666 1613 1588 1600 1594 1572 1572 1569 1559 1554 1555 1562 1559 1525 1504 1510 1517 1511 1508 1500 1498 1481 1477 1445 1435 1441 1427 1395 1404 1446 1455 1473 1484 1478 1452 1458 1461 1444 1469 1481 1482 1463 1440 1427 1442 1463 1465 1466 1451 1429 1462 1469 1459 1447 1453 1436 1433 1430 1430 1449 1458 1474 1491 1492 1494 1504 1513 1538 1549 1563 1567 1578 1583 1602 1607 1585 1599 1609 1616 1648 1659 1677 1686 1718 1733 1768 1771 1854 1879 1968 1976 2050 2077 2135 2146 2141 2129 2103 2083 2054 2041 2024 2024 2020 2008 1998 2009 2035 2048 2086 -9999 -9999 -9999 -9999 -9999 -9999 -9999 -9999 -9999 -9999 -9999 -9999 -9999 -9999 -9999 -9999 -9999 -9999 -9999 -9999 -9999 -9999 -9999 -9999 -9999 -9999 -9999 -9999
-9999 -9999 -9999 -9999 -9999 -9999 -9999 -9999 -9999 -9999 -9999 -9999 -9999 -9999 -9999 -9999 -9999 -9999 -9999 -9999 -9999 -9999 -9999 -9999 -9999 -9999 -9999 -9999 -9999 -9999 -9999 -9999 -9999 -9999 -9999 -9999 -9999 -9999 -9999 -9999 -9999 -9999 -9999 -9999 -9999 -9999 -9999 -9999 -9999 -9999 -9999 -9999 -9999 -9999 -9999 -9999 -9999 -9999 -9999 -9999 -9999 -9999 -9999 -9999 -9999 -9999 -9999 -9999 -9999 -9999 -9999 -9999 -9999 -9999 -9999 -9999 -9999 -9999 -9999 -9999 -9999 -9999 -9999 -9999 -9999 -9999 -9999 -9999 -9999 -9999 -9999 1545 1539 1527 1531 1537 1509 1440 1420 1351 1324 1248 1182 1097 1073 1039 1039 1029 1011 950 940 919 921 869 830 738 717 678 661 629 610 582 565 527 496 453 442 417 419 439 450 490 485 509 512 554 569 613 638 703 724 780 836 895 920 968 991 1039 1103 1192 1202 1236 1235 1250 1259 1259 1249 1232 1219 1209 1205 1157 1148 1141 1134 1128 1117 1105 1142 1195 1235 1278 1318 1377 1403 1461 1482 1475 1462 1436 1422 1394 1382 1344 1328 1254 1230 1161 1131 1088 1078 1023 1000 934 919 909 911 962 978 999 1007 1028 1039 1065 1079 1105 1113 1138 1162 1190 1211 1241 1257 1290 1257 1203 1226 1242 1257 1293 1300 1344 1358 1372 1378 1389 1410 1438 1441 1462 1475 1499 1514 1546 1576 1608 1572 1528 1498 1476 1450 1369 1343 1303 1277 1249 1234 1211 1206 1236 1267 1291 1310 1365 1396 1408 1407 1375 1360 1307 1287 1281 1322 1365 1379 1425 1450 1485 1490 1528 1550 1569 1583 1607 1635 1682 1717 1809 1817 1786 1782 1768 1762 1752 1749 1729 1720 1690 1683 1697 1708 1722 1714 1694 1687 1717 1709 1653 1663 1652 1621 1582 1579 1560 1562 1589 1623 1640 1649 1660 1658 1648 1643 1627 1619 1597 1589 1603 1618 1632 1644 1653 1655 1659 1658 1650 1658 1666 1660 1608 1630 1669 1679 1698 1707 1705 1711 1706 1715 1727 1738 1777 1793 1831 1854 1940 1955 1984 1987 1969 1948 1902 1893 1885 1878 1860 1854 1838 1839 1807 1781 1735 1740 1723 1695 1699 1702 1680 1671 1668 1660 1656 1647 1616 1596 1569 1575 1554 1560 1568 1544 1529 1545 1548 1547 1519 1499 1503 1507 1504 1501 1497 1497 1480 1469 1444 1439 1418 1433 1390 1402 1451 1464 1481 1482 1478 1439 1440 1437 1471 1479 1479 1476 1455 1440 1422 1444 1460 1459 1460 1448 1427 1455 1457 1442 1434 1425 1421 1425 1444 1459 1482 1481 1492 1503 1517 1506 1516 1510 1548 1555 1581 1582 1584 1591 1622 1627 1607 1620 1623 1619 1653 1666 1689 1701 1731 1747 1804 1816 1904 1919 1985 1996 2040 2061 2139 2135 2123 2118 2087 2076 2036 2027 2023 2022 2008 1994 1994 2007 2034 2047 2086 -9999 -9999 -9999 -9999 -9999 -9999 -9999 -9999 -9999 -9999 -9999 -9999 -9999 -9999 -9999 -9999 -9999 -9999 -9999 -9999 -9999 -9999 -9999 -9999 -9999 -9999 -9999 -9999
-9999 -9999 -9999 -9999 -9999 -9999 -9999 -9999 -9999 -9999 -9999 -9999 -9999 -9999 -9999 -9999 -9999 -9999 -9999 -9999 -9999 -9999 -9999 -9999 -9999 -9999 -9999 -9999 -9999 -9999 -9999 -9999 -9999 -9999 -9999 -9999 -9999 -9999 -9999 -9999 -9999 -9999 -9999 -9999 -9999 -9999 -9999 -9999 -9999 -9999 -9999 -9999 -9999 -9999 -9999 -9999 -9999 -9999 -9999 -9999 -9999 -9999 -9999 -9999 -9999 -9999 -9999 -9999 -9999 -9999 -9999 -9999 -9999 -9999 -9999 -9999 -9999 -9999 -9999 -9999 -9999 -9999 -9999 -9999 -9999 -9999 -9999 -9999 -9999 -9999 -9999 1521 1501 1489 1486 1498 1484 1428 1404 1346 1312 1231 1158 1104 1086 1098 1095 1058 1032 989 982 958 936 865 822 718 699 667 654 618 607 574 570 542 520 468 449 434 420 430 437 489 512 567 579 601 629 656 680 727 746 785 811 865 887 936 959 1011 1035 1108 1145 1243 1275 1288 1297 1280 1270 1283 1269 1246 1235 1208 1205 1184 1185 1167 1154 1154 1140 1165 1215 1281 1324 1369 1399 1452 1473 1489 1477 1468 1457 1440 1417 1388 1339 1279 1251 1184 1141 1111 1085 1019 999 957 947 915 928 963 970 1009 1015 1033 1049 1083 1096 1123 1136 1162 1178 1204 1204 1236 1251 1285 1295 1216 1225 1237 1255 1290 1294 1327 1340 1359 1377 1400 1400 1429 1433 1457 1460 1488 1504 1562 1591 1625 1597 1547 1521 1468 1442 1366 1349 1325 1307 1278 1280 1251 1246 1262 1304 1335 1328 1374 1428 1432 1441 1411 1380 1350 1356 1307 1312 1354 1366 1407 1434 1481 1501 1541 1539 1561 1568 1629 1648 1703 1741 1784 1772 1758 1763 1748 1750 1737 1740 1720 1708 1699 1703 1704 1696 1696 1687 1672 1673 1699 1705 1692 1722 1693 1647 1603 1584 1601 1608 1673 1687 1705 1712 1706 1709 1702 1683 1645 1634 1616 1608 1608 1613 1638 1656 1669 1671 1688 1689 1688 1701 1675 1632 1645 1644 1641 1646 1663 1673 1692 1700 1723 1739 1756 1764 1793 1811 1848 1891 1947 1962 1983 1973 1940 1923 1901 1889 1857 1827 1810 1802 1779 1779 1773 1767 1728 1704 1671 1657 1656 1655 1638 1629 1615 1603 1597 1588 1589 1584 1573 1548 1539 1553 1557 1552 1511 1495 1519 1520 1510 1475 1482 1486 1493 1492 1481 1476 1454 1443 1437 1432 1407 1417 1385 1400 1445 1461 1477 1477 1435 1424 1458 1467 1472 1471 1467 1461 1447 1433 1416 1439 1446 1440 1446 1442 1412 1434 1426 1420 1420 1442 1459 1468 1475 1480 1489 1505 1526 1536 1546 1552 1547 1554 1577 1597 1610 1621 1634 1640 1661 1676 1659 1668 1655 1650 1647 1674 1701 1717 1771 1791 1844 1870 1936 1968 2046 2064 2100 2117 2133 2117 2095 2078 2044 2042 2012 2011 2007 1997 1979 1975 1995 2009 2040 2057 -9999 -9999 -9999 -9999 -9999 -9999 -9999 -9999 -9999 -9999 -9999 -9999 -9999 -9999 -9999 -9999 -9999 -9999 -9999 -9999 -9999 -9999 -9999 -9999 -9999 -9999 -9999 -9999 -9999
-9999 -9999 -9999 -9999 -9999 -9999 -9999 -9999 -9999 -9999 -9999 -9999 -9999 -9999 -9999 -9999 -9999 -9999 -9999 -9999 -9999 -9999 -9999 -9999 -9999 -9999 -9999 -9999 -9999 -9999 -9999 -9999 -9999 -9999 -9999 -9999 -9999 -9999 -9999 -9999 -9999 -9999 -9999 -9999 -9999 -9999 -9999 -9999 -9999 -9999 -9999 -9999 -9999 -9999 -9999 -9999 -9999 -9999 -9999 -9999 -9999 -9999 -9999 -9999 -9999 -9999 -9999 -9999 -9999 -9999 -9999 -9999 -9999 -9999 -9999 -9999 -9999 -9999 -9999 -9999 -9999 -9999 -9999 -9999 -9999 -9999 -9999 -9999 -9999 -9999 1541 1512 1495 1468 1456 1477 1465 1432 1395 1339 1303 1211 1151 1116 1112 1133 1109 1055 1038 1007 1004 936 915 853 819 716 699 664 655 618 603 573 559 543 534 479 460 446 426 425 435 486 504 564 578 623 645 683 698 725 744 795 835 890 902 927 939 1015 1033 1108 1161 1283 1306 1312 1314 1300 1311 1306 1294 1280 1273 1252 1242 1218 1219 1202 1194 1182 1181 1159 1205 1278 1318 1367 1389 1441 1464 1506 1508 1496 1489 1468 1429 1376 1346 1281 1236 1164 1127 1095 1058 1020 991 966 952 925 928 952 968 984 1002 1036 1048 1090 1099 1124 1137 1163 1189 1209 1213 1236 1245 1281 1299 1254 1226 1247 1254 1271 1289 1311 1324 1355 1369 1403 1405 1421 1414 1458 1472 1494 1511 1573 1604 1642 1617 1570 1540 1476 1450 1384 1364 1356 1340 1306 1297 1274 1257 1285 1321 1362 1356 1381 1444 1463 1469 1448 1424 1396 1393 1349 1323 1349 1389 1414 1424 1460 1483 1505 1503 1573 1575 1628 1651 1705 1739 1735 1736 1735 1738 1731 1735 1746 1747 1738 1725 1708 1710 1703 1691 1675 1669 1665 1662 1679 1685 1704 1720 1689 1661 1622 1603 1644 1645 1706 1714 1747 1741 1735 1736 1725 1708 1672 1649 1629 1618 1619 1633 1650 1675 1691 1687 1715 1718 1718 1725 1667 1676 1679 1674 1663 1661 1667 1677 1692 1703 1727 1744 1769 1782 1810 1824 1873 1906 1937 1951 1961 1950 1928 1906 1890 1877 1841 1821 1786 1761 1753 1753 1744 1741 1734 1726 1701 1693 1640 1617 1593 1586 1571 1562 1545 1542 1560 1556 1553 1541 1523 1541 1552 1547 1521 1488 1504 1502 1507 1493 1455 1452 1469 1474 1469 1463 1441 1430 1430 1421 1400 1397 1385 1391 1445 1459 1472 1472 1434 1429 1456 1461 1455 1451 1452 1447 1437 1425 1424 1435 1435 1431 1422 1421 1408 1407 1408 1417 1447 1462 1481 1482 1488 1500 1515 1532 1543 1549 1556 1552 1555 1563 1598 1617 1621 1625 1645 1657 1682 1693 1696 1690 1676 1665 1652 1681 1705 1723 1821 1854 1913 1923 1988 2007 2054 2085 2134 2138 2118 2107 2068 2050 2032 2014 2000 2013 1994 1987 1971 1976 1998 2015 2049 2056 -9999 -9999 -9999 -9999 -9999 -9999 -9999 -9999 -9999 -9999 -9999 -9999 -9999 -9999 -9999 -9999 -9999 -9999 -9999 -9999 -9999 -9999 -9999 -9999 -9999 -9999 -9999 -9999 -9999
-9999 -9999 -9999 -9999 -9999 -9999 -9999 -9999 -9999 -9999 -9999 -9999 -9999 -9999 -9999 -9999 -9999 -9999 -9999 -9999 -9999 -9999 -9999 -9999 -9999 -9999 -9999 -9999 -9999 -9999 -9999 -9999 -9999 -9999 -9999 -9999 -9999 -9999 -9999 -9999 -9999 -9999 -9999 -9999 -9999 -9999 -9999 -9999 -9999 -9999 -9999 -9999 -9999 -9999 -9999 -9999 -9999 -9999 -9999 -9999 -9999 -9999 -9999 -9999 -9999 -9999 -9999 -9999 -9999 -9999 -9999 -9999 -9999 -9999 -9999 -9999 -9999 -9999 -9999 -9999 -9999 -9999 -9999 -9999 -9999 -9999 -9999 -9999 -9999 1547 1530 1529 1511 1473 1441 1425 1434 1407 1376 1329 1276 1205 1160 1146 1172 1147 1103 1068 1057 1007 987 918 894 810 786 722 700 671 663 626 612 579 566 540 524 490 475 444 424 426 436 484 510 549 561 603 619 643 667 732 751 824 859 936 941 968 971 1014 1041 1166 1254 1308 1321 1344 1353 1357 1353 1325 1317 1320 1322 1305 1288 1274 1268 1242 1231 1214 1206 1193 1192 1260 1297 1354 1384 1434 1458 1499 1528 1543 1515 1464 1436 1383 1335 1272 1231 1174 1145 1096 1070 1007 989 963 965 992 962 960 964 967 992 1027 1046 1086 1094 1121 1136 1166 1189 1213 1220 1246 1251 1282 1296 1290 1275 1236 1255 1281 1291 1318 1326 1347 1357 1380 1393 1413 1415 1453 1478 1528 1541 1594 1632 1683 1665 1606 1576 1516 1498 1427 1411 1378 1352 1331 1325 1290 1283 1323 1339 1377 1401 1411 1447 1478 1504 1488 1456 1424 1402 1407 1415 1393 1384 1400 1420 1485 1501 1530 1557 1616 1627 1635 1671 1701 1699 1708 1712 1711 1709 1725 1732 1745 1737 1729 1718 1704 1705 1693 1690 1666 1661 1653 1653 1651 1658 1669 1669 1662 1649 1639 1640 1669 1681 1714 1737 1755 1751 1741 1744 1743 1739 1695 1673 1647 1639 1654 1670 1686 1690 1733 1728 1742 1756 1767 1746 1727 1714 1712 1709 1686 1684 1688 1696 1699 1714 1758 1784 1801 1820 1864 1875 1917 1916 1901 1912 1921 1916 1903 1904 1896 1882 1851 1822 1787 1763 1730 1713 1685 1684 1688 1679 1703 1700 1664 1654 1647 1635 1604 1591 1564 1555 1517 1509 1515 1519 1520 1537 1529 1531 1522 1523 1465 1455 1483 1493 1478 1467 1432 1434 1448 1457 1420 1414 1419 1410 1400 1397 1381 1398 1452 1457 1465 1461 1419 1422 1444 1449 1435 1436 1437 1430 1419 1402 1425 1429 1416 1423 1404 1402 1408 1420 1453 1471 1511 1507 1520 1530 1525 1526 1529 1534 1541 1553 1556 1553 1560 1572 1611 1600 1612 1633 1655 1670 1694 1705 1717 1726 1707 1703 1680 1704 1735 1794 1870 1891 1949 1985 2042 2062 2099 2126 2140 2125 2103 2081 2064 2050 2008 2000 1986 1980 1973 1969 1969 1978 2011 2035 -9999 -9999 -9999 -9999 -9999 -9999 -9999 -9999 -9999 -9999 -9999 -9999 -9999 -9999 -9999 -9999 -9999 -9999 -9999 -9999 -9999 -9999 -9999 -9999 -9999 -9999 -9999 -9999 -9999 -9999 -9999
-9999 -9999 -9999 -9999 -9999 -9999 -9999 -9999 -9999 -9999 -9999 -9999 -9999 -9999 -9999 -9999 -9999 -9999 -9999 -9999 -9999 -9999 -9999 -9999 -9999 -9999 -9999 -9999 -9999 -9999 -9999 -9999 -9999 -9999 -9999 -9999 -9999 -9999 -9999 -9999 -9999 -9999 -9999 -9999 -9999 -9999 -9999 -9999 -9999 -9999 -9999 -9999 -9999 -9999 -9999 -9999 -9999 -9999 -9999 -9999 -9999 -9999 -9999 -9999 -9999 -9999 -9999 -9999 -9999 -9999 -9999 -9999 -9999 -9999 -9999 -9999 -9999 -9999 -9999 -9999 -9999 -9999 -9999 -9999 -9999 -9999 -9999 -9999 -9999 1524 1512 1508 1501 1482 1460 1413 1409 1390 1363 1308 1260 1188 1161 1178 1187 1146 1108 1076 1075 1013 993 928 887 812 797 741 696 684 675 636 615 588 569 538 520 494 478 438 428 428 432 477 498 531 545 598 620 684 697 732 756 847 900 942 952 983 999 1041 1069 1246 1288 1302 1313 1349 1354 1376 1375 1350 1356 1347 1346 1319 1304 1289 1287 1275 1267 1254 1232 1223 1213 1251 1284 1342 1376 1433 1445 1482 1521 1542 1524 1467 1440 1386 1341 1276 1227 1193 1162 1109 1085 1016 999 977 988 1005 981 968 993 990 987 1023 1052 1086 1092 1122 1132 1169 1187 1205 1218 1235 1245 1278 1292 1310 1291 1238 1261 1282 1291 1320 1325 1346 1354 1394 1409 1421 1419 1462 1484 1509 1527 1599 1645 1696 1680 1617 1591 1536 1509 1453 1426 1385 1368 1353 1337 1305 1311 1346 1354 1388 1402 1438 1454 1480 1518 1488 1453 1432 1429 1435 1442 1427 1414 1403 1445 1488 1521 1559 1590 1620 1663 1636 1674 1684 1686 1694 1712 1709 1720 1741 1745 1741 1733 1722 1713 1696 1695 1687 1684 1664 1658 1653 1651 1652 1654 1654 1654 1656 1646 1650 1650 1674 1682 1717 1740 1766 1767 1752 1750 1755 1751 1717 1691 1654 1647 1654 1682 1711 1715 1729 1746 1760 1771 1777 1752 1737 1719 1742 1731 1697 1694 1698 1702 1715 1721 1773 1807 1817 1836 1893 1903 1940 1915 1881 1887 1913 1905 1893 1896 1900 1883 1842 1818 1787 1769 1739 1724 1691 1669 1657 1668 1693 1692 1677 1668 1653 1636 1608 1599 1568 1557 1524 1512 1492 1501 1520 1533 1527 1523 1508 1516 1498 1472 1471 1487 1480 1475 1438 1420 1444 1457 1416 1413 1414 1405 1396 1393 1377 1398 1451 1451 1446 1435 1416 1419 1438 1439 1423 1430 1428 1423 1407 1398 1424 1428 1413 1412 1396 1396 1428 1442 1489 1503 1519 1523 1531 1519 1506 1511 1517 1528 1535 1543 1539 1551 1560 1574 1608 1598 1623 1641 1662 1677 1699 1712 1731 1739 1726 1723 1704 1709 1761 1821 1883 1937 1972 1992 2074 2094 2111 2131 2135 2118 2098 2078 2045 2038 2016 2017 1998 1992 1968 1965 1971 1981 2016 2042 -9999 -9999 -9999 -9999 -9999 -9999 -9999 -9999 -9999 -9999 -9999 -9999 -9999 -9999 -9999 -9999 -9999 -9999 -9999 -9999 -9999 -9999 -9999 -9999 -9999 -9999 -9999 -9999 -9999 -9999 -9999
-9999 -9999 -9999 -9999 -9999 -9999 -9999 -9999 -9999 -9999 -9999 -9999 -9999 -9999 -9999 -9999 -9999 -9999 -9999 -9999 -9999 -9999 -9999 -9999 -9999 -9999 -9999 -9999 -9999 -9999 -9999 -9999 -9999 -9999 -9999 -9999 -9999 -9999 -9999 -9999 -9999 -9999 -9999 -9999 -9999 -9999 -9999 -9999 -9999 -9999 -9999 -9999 -9999 -9999 -9999 -9999 -9999 -9999 -9999 -9999 -9999 -9999 -9999 -9999 -9999 -9999 -9999 -9999 -9999 -9999 -9999 -9999 -9999 -9999 -9999 -9999 -9999 -9999 -9999 -9999 -9999 -9999 -9999 -9999 -9999 -9999 -9999 -9999 -9999 1509 1490 1459 1456 1442 1432 1401 1356 1346 1330 1280 1228 1164 1131 1154 1163 1104 1078 1084 1072 1039 1017 947 920 845 833 799 766 720 715 660 639 611 560 526 518 488 473 436 431 430 431 498 531 570 599 649 675 731 754 792 798 858 906 976 1011 1038 1044 1097 1144 1249 1252 1287 1310 1323 1324 1386 1400 1398 1390 1364 1355 1338 1327 1327 1318 1308 1309 1292 1283 1261 1260 1256 1282 1340 1372 1431 1450 1496 1521 1554 1536 1466 1447 1397 1350 1277 1248 1222 1176 1111 1079 1040 1025 1034 1032 1038 1002 994 1000 1014 1017 1031 1045 1080 1098 1120 1127 1155 1175 1203 1213 1235 1243 1277 1314 1338 1329 1257 1244 1287 1300 1331 1340 1353 1355 1378 1395 1430 1436 1475 1489 1510 1514 1597 1640 1685 1698 1632 1610 1553 1527 1495 1473 1434 1422 1375 1361 1345 1330 1345 1359 1416 1425 1472 1494 1528 1530 1510 1471 1470 1474 1472 1495 1507 1507 1471 1456 1511 1544 1560 1571 1615 1650 1653 1672 1722 1731 1736 1722 1711 1716 1736 1738 1724 1712 1699 1691 1677 1677 1670 1668 1660 1657 1653 1654 1669 1678 1659 1656 1662 1654 1660 1662 1679 1689 1734 1753 1785 1788 1781 1774 1765 1764 1736 1717 1669 1665 1689 1700 1744 1750 1729 1756 1776 1786 1791 1781 1769 1762 1780 1766 1741 1732 1737 1736 1749 1763 1792 1805 1824 1847 1913 1917 1912 1898 1863 1854 1865 1858 1852 1863 1872 1866 1839 1819 1791 1772 1746 1733 1699 1667 1624 1630 1657 1658 1652 1643 1639 1620 1595 1575 1567 1574 1539 1516 1476 1469 1512 1520 1516 1510 1499 1497 1489 1482 1452 1472 1477 1470 1437 1425 1421 1437 1412 1408 1401 1395 1391 1386 1379 1404 1433 1434 1427 1415 1409 1406 1422 1427 1419 1426 1420 1418 1394 1397 1415 1414 1388 1387 1422 1438 1483 1492 1507 1513 1517 1497 1495 1488 1482 1487 1508 1501 1503 1504 1517 1539 1526 1555 1590 1607 1640 1651 1668 1683 1716 1738 1763 1769 1754 1751 1722 1739 1792 1835 1907 1948 2005 2045 2097 2126 2149 2145 2125 2110 2070 2057 2046 2042 2039 2033 1993 1980 1961 1959 1973 1985 2026 2047 -9999 -9999 -9999 -9999 -9999 -9999 -9999 -9999 -9999 -9999 -9999 -9999 -9999 -9999 -9999 -9999 -9999 -9999 -9999 -9999 -9999 -9999 -9999 -9999 -9999 -9999 -9999 -9999 -9999 -9999 -9999
-9999 -9999 -9999 -9999 -9999 -9999 -9999 -9999 -9999 -9999 -9999 -9999 -9999 -9999 -9999 -9999 -9999 -9999 -9999 -9999 -9999 -9999 -9999 -9999 -9999 -9999 -9999 -9999 -9999 -9999 -9999 -9999 -9999 -9999 -9999 -9999 -9999 -9999 -9999 -9999 -9999 -9999 -9999 -9999 -9999 -9999 -9999 -9999 -9999 -9999 -9999 -9999 -9999 -9999 -9999 -9999 -9999 -9999 -9999 -9999 -9999 -9999 -9999 -9999 -9999 -9999 -9999 -9999 -9999 -9999 -9999 -9999 -9999 -9999 -9999 -9999 -9999 -9999 -9999 -9999 -9999 -9999 -9999 -9999 -9999 -9999 -9999 -9999 -9999 1509 1491 1443 1441 1413 1408 1384 1351 1331 1317 1267 1206 1143 1112 1127 1141 1078 1052 1052 1041 1046 1029 974 938 864 860 821 773 734 729 689 652 612 567 531 519 501 477 436 433 431 434 496 530 606 624 660 688 756 780 842 842 905 942 1004 1035 1073 1087 1163 1194 1223 1231 1279 1282 1304 1323 1380 1399 1403 1398 1386 1385 1370 1354 1346 1328 1308 1309 1305 1294 1277 1272 1258 1280 1342 1374 1429 1447 1502 1521 1557 1542 1474 1454 1396 1371 1286 1272 1242 1186 1117 1080 1063 1065 1044 1035 1049 1036 1003 1000 1021 1023 1043 1053 1072 1095 1115 1129 1148 1180 1203 1215 1231 1243 1286 1315 1336 1348 1291 1255 1280 1289 1321 1320 1340 1341 1375 1394 1432 1438 1474 1485 1530 1540 1597 1634 1670 1676 1637 1621 1567 1551 1514 1494 1451 1441 1390 1366 1353 1344 1359 1382 1434 1458 1474 1505 1540 1546 1540 1512 1496 1505 1516 1527 1536 1543 1512 1490 1502 1529 1552 1598 1619 1636 1656 1685 1726 1741 1739 1720 1712 1725 1736 1729 1715 1702 1689 1683 1671 1671 1663 1661 1657 1655 1658 1657 1675 1688 1665 1662 1667 1657 1666 1668 1684 1696 1740 1765 1798 1803 1790 1785 1775 1770 1753 1743 1681 1670 1700 1715 1745 1757 1765 1757 1786 1799 1787 1773 1783 1786 1779 1768 1747 1740 1752 1756 1767 1778 1807 1799 1824 1849 1899 1899 1883 1878 1853 1835 1848 1841 1832 1840 1851 1849 1828 1813 1785 1763 1736 1717 1691 1667 1620 1616 1629 1633 1631 1624 1620 1607 1581 1563 1541 1549 1545 1525 1466 1479 1502 1508 1508 1504 1492 1489 1484 1476 1442 1459 1467 1459 1436 1424 1407 1423 1413 1407 1393 1389 1387 1387 1379 1395 1418 1415 1414 1410 1413 1400 1419 1421 1416 1417 1414 1413 1391 1399 1408 1401 1386 1397 1441 1462 1486 1492 1506 1513 1496 1478 1488 1483 1475 1477 1475 1477 1487 1490 1499 1515 1533 1547 1584 1600 1635 1651 1671 1687 1729 1758 1777 1779 1768 1756 1734 1738 1790 1839 1890 1953 2013 2056 2117 2139 2147 2128 2109 2101 2044 2042 2040 2038 2029 2016 1994 1971 1956 1957 1975 1988 2028 -9999 -9999 -9999 -9999 -9999 -9999 -9999 -9999 -9999 -9999 -9999 -9999 -9999 -9999 -9999 -9999 -9999 -9999 -9999 -9999 -9999 -9999 -9999 -9999 -9999 -9999 -9999 -9999 -9999 -9999 -9999 -9999
-9999 -9999 -9999 -9999 -9999 -9999 -9999 -9999 -9999 -9999 -9999 -9999 -9999 -9999 -9999 -9999 -9999 -9999 -9999 -9999 -9999 -9999 -9999 -9999 -9999 -9999 -9999 -9999 -9999 -9999 -9999 -9999 -9999 -9999 -9999 -9999 -9999 -9999 -9999 -9999 -9999 -9999 -9999 -9999 -9999 -9999 -9999 -9999 -9999 -9999 -9999 -9999 -9999 -9999 -9999 -9999 -9999 -9999 -9999 -9999 -9999 -9999 -9999 -9999 -9999 -9999 -9999 -9999 -9999 -9999 -9999 -9999 -9999 -9999 -9999 -9999 -9999 -9999 -9999 -9999 -9999 -9999 -9999 -9999 -9999 -9999 -9999 -9999 1562 1506 1488 1452 1446 1389 1362 1344 1337 1267 1245 1196 1165 1105 1079 1086 1085 1030 979 979 966 993 1007 982 960 901 892 851 808 777 770 724 683 637 599 559 528 501 477 437 437 434 462 522 556 606 624 713 739 814 839 909 933 970 995 1058 1079 1117 1127 1141 1158 1185 1207 1245 1257 1281 1297 1358 1375 1415 1428 1442 1431 1410 1407 1394 1378 1355 1348 1319 1306 1284 1286 1270 1289 1345 1368 1426 1445 1493 1518 1562 1553 1476 1465 1419 1386 1334 1315 1253 1199 1113 1091 1086 1087 1094 1076 1094 1091 1054 1027 1023 1051 1072 1089 1081 1101 1128 1128 1148 1187 1209 1214 1227 1257 1288 1306 1328 1347 1335 1310 1265 1263 1300 1306 1333 1339 1391 1413 1440 1458 1472 1486 1543 1573 1593 1605 1631 1647 1670 1663 1623 1605 1540 1520 1483 1478 1427 1407 1368 1373 1365 1385 1453 1472 1507 1533 1562 1584 1576 1567 1552 1550 1550 1555 1585 1606 1586 1554 1523 1554 1575 1585 1598 1623 1630 1664 1712 1735 1736 1733 1730 1731 1742 1727 1706 1692 1679 1673 1667 1663 1661 1658 1654 1659 1659 1660 1692 1704 1681 1679 1677 1672 1682 1686 1704 1713 1750 1778 1825 1840 1819 1812 1787 1782 1761 1755 1703 1691 1731 1744 1762 1776 1779 1774 1789 1792 1790 1781 1782 1789 1781 1770 1760 1757 1775 1778 1791 1813 1836 1834 1836 1848 1850 1847 1827 1827 1819 1820 1807 1808 1786 1790 1804 1813 1801 1794 1780 1764 1735 1713 1673 1660 1642 1621 1587 1574 1581 1578 1577 1572 1559 1544 1529 1523 1505 1507 1482 1448 1478 1492 1498 1494 1485 1481 1471 1455 1437 1434 1428 1432 1438 1436 1405 1394 1423 1411 1382 1380 1373 1376 1371 1387 1400 1400 1398 1401 1407 1393 1399 1408 1406 1407 1407 1401 1392 1394 1383 1378 1404 1422 1464 1467 1472 1487 1503 1490 1460 1455 1453 1461 1482 1485 1481 1510 1527 1540 1518 1507 1522 1532 1600 1615 1639 1658 1668 1688 1752 1765 1778 1781 1771 1758 1757 1773 1814 1851 1937 1975 2023 2056 2115 2136 2142 2116 2088 2068 2048 2020 2032 2026 2009 1997 1982 1960 1953 1965 1986 1999 -9999 -9999 -9999 -9999 -9999 -9999 -9999 -9999 -9999 -9999 -9999 -9999 -9999 -9999 -9999 -9999 -9999 -9999 -9999 -9999 -9999 -9999 -9999 -9999 -9999 -9999 -9999 -9999 -9999 -9999 -9999 -9999 -9999
-9999 -9999 -9999 -9999 -9999 -9999 -9999 -9999 -9999 -9999 -9999 -9999 -9999 -9999 -9999 -9999 -9999 -9999 -9999 -9999 -9999 -9999 -9999 -9999 -9999 -9999 -9999 -9999 -9999 -9999 -9999 -9999 -9999 -9999 -9999 -9999 -9999 -9999 -9999 -9999 -9999 -9999 -9999 -9999 -9999 -9999 -9999 -9999 -9999 -9999 -9999 -9999 -9999 -9999 -9999 -9999 -9999 -9999 -9999 -9999 -9999 -9999 -9999 -9999 -9999 -9999 -9999 -9999 -9999 -9999 -9999 -9999 -9999 -9999 -9999 -9999 -9999 -9999 -9999 -9999 -9999 -9999 -9999 -9999 -9999 -9999 -9999 1583 1566 1510 1488 1434 1433 1371 1341 1307 1306 1244 1214 1170 1144 1101 1066 1061 1040 981 946 962 951 980 974 953 942 899 877 826 804 779 761 721 688 650 617 583 557 524 484 438 438 438 466 513 550 590 617 725 776 840 874 940 970 1019 1025 1064 1077 1107 1116 1123 1132 1170 1190 1227 1242 1279 1287 1341 1356 1387 1415 1451 1443 1448 1440 1424 1402 1367 1357 1346 1336 1312 1306 1311 1301 1340 1363 1424 1441 1492 1514 1568 1572 1491 1465 1421 1392 1344 1315 1262 1213 1120 1093 1091 1098 1116 1123 1124 1126 1082 1052 1031 1055 1084 1097 1096 1106 1128 1126 1160 1196 1201 1210 1243 1265 1294 1311 1331 1351 1358 1330 1296 1290 1279 1297 1333 1343 1389 1411 1457 1449 1475 1499 1566 1594 1608 1607 1628 1641 1686 1684 1648 1624 1550 1528 1494 1481 1436 1415 1382 1382 1383 1408 1443 1458 1496 1522 1550 1575 1605 1597 1580 1575 1583 1585 1608 1629 1605 1574 1535 1546 1562 1571 1584 1598 1605 1652 1696 1711 1716 1718 1738 1735 1740 1730 1712 1705 1685 1673 1667 1663 1659 1657 1653 1659 1661 1659 1689 1692 1684 1687 1683 1679 1691 1697 1720 1729 1757 1784 1832 1846 1842 1842 1802 1791 1767 1752 1721 1705 1742 1754 1766 1780 1802 1795 1790 1792 1787 1775 1781 1787 1782 1772 1765 1769 1791 1800 1833 1833 1851 1857 1850 1865 1827 1823 1813 1810 1808 1805 1787 1783 1763 1780 1795 1804 1792 1779 1761 1753 1734 1720 1680 1667 1650 1631 1607 1578 1554 1555 1555 1552 1549 1539 1533 1520 1504 1494 1496 1442 1458 1476 1488 1488 1480 1474 1464 1460 1448 1422 1418 1417 1427 1423 1417 1392 1418 1411 1381 1380 1371 1368 1371 1391 1392 1390 1389 1389 1399 1396 1397 1403 1402 1403 1401 1394 1383 1380 1376 1381 1414 1432 1464 1458 1483 1490 1482 1464 1444 1446 1482 1494 1504 1502 1483 1498 1535 1545 1525 1523 1513 1521 1595 1609 1641 1659 1667 1683 1735 1745 1758 1769 1765 1753 1745 1759 1801 1893 1960 2001 2041 2065 2115 2125 2131 2107 2095 2058 2042 2017 2025 2019 1996 1984 1969 1954 1956 1970 1993 2004 -9999 -9999 -9999 -9999 -9999 -9999 -9999 -9999 -9999 -9999 -9999 -9999 -9999 -9999 -9999 -9999 -9999 -9999 -9999 -9999 -9999 -9999 -9999 -9999 -9999 -9999 -9999 -9999 -9999 -9999 -9999 -9999 -9999
-9999 -9999 -9999 -9999 -9999 -9999 -9999 -9999 -9999 -9999 -9999 -9999 -9999 -9999 -9999 -9999 -9999 -9999 -9999 -9999 -9999 -9999 -9999 -9999 -9999 -9999 -9999 -9999 -9999 -9999 -9999 -9999 -9999 -9999 -9999 -9999 -9999 -9999 -9999 -9999 -9999 -9999 -9999 -9999 -9999 -9999 -9999 -9999 -9999 -9999 -9999 -9999 -9999 -9999 -9999 -9999 -9999 -9999 -9999 -9999 -9999 -9999 -9999 -9999 -9999 -9999 -9999 -9999 -9999 -9999 -9999 -9999 -9999 -9999 -9999 -9999 -9999 -9999 -9999 -9999 -9999 -9999 -9999 -9999 -9999 -9999 -9999 1568 1551 1501 1493 1422 1397 1346 1326 1293 1285 1228 1208 1176 1168 1127 1081 982 971 916 898 886 877 883 877 845 842 825 809 772 755 717 685 669 647 611 572 535 515 495 492 440 441 445 487 556 592 607 638 706 761 852 896 936 958 1005 1013 1042 1048 1057 1063 1059 1071 1122 1144 1204 1228 1267 1276 1306 1326 1381 1403 1430 1450 1485 1489 1475 1460 1446 1445 1425 1407 1394 1398 1379 1373 1339 1356 1423 1440 1501 1525 1581 1578 1482 1463 1410 1389 1333 1313 1248 1202 1141 1141 1148 1152 1171 1179 1203 1189 1125 1110 1079 1059 1096 1102 1117 1126 1131 1128 1154 1170 1206 1227 1248 1277 1297 1331 1358 1369 1371 1381 1351 1339 1314 1312 1310 1339 1378 1410 1473 1490 1512 1547 1588 1613 1649 1662 1673 1681 1706 1715 1670 1644 1561 1531 1504 1490 1441 1440 1417 1417 1399 1419 1450 1455 1471 1479 1525 1558 1615 1640 1638 1639 1655 1659 1674 1676 1680 1661 1584 1571 1575 1590 1605 1623 1624 1642 1650 1657 1675 1701 1721 1723 1728 1730 1722 1720 1701 1687 1676 1671 1665 1662 1662 1662 1662 1664 1672 1677 1684 1692 1690 1694 1707 1724 1753 1770 1803 1810 1846 1877 1907 1908 1863 1846 1768 1758 1755 1755 1778 1797 1826 1819 1819 1810 1800 1795 1790 1791 1789 1787 1799 1802 1806 1814 1869 1882 1900 1904 1897 1906 1924 1906 1830 1821 1796 1781 1765 1766 1776 1775 1764 1745 1729 1741 1755 1749 1715 1683 1680 1674 1672 1668 1636 1625 1605 1599 1577 1536 1518 1520 1535 1524 1510 1504 1489 1466 1456 1438 1422 1423 1442 1442 1437 1448 1454 1453 1440 1438 1414 1400 1389 1400 1407 1409 1390 1402 1377 1371 1363 1357 1362 1372 1380 1378 1377 1380 1383 1387 1387 1392 1393 1392 1392 1376 1372 1377 1418 1427 1426 1426 1444 1457 1440 1433 1428 1443 1495 1513 1564 1581 1583 1567 1530 1494 1540 1547 1571 1571 1554 1550 1534 1556 1609 1618 1648 1674 1668 1686 1697 1707 1703 1689 1719 1742 1842 1882 1963 2015 2071 2094 2108 2102 2098 2084 2061 2053 2028 2018 1985 1976 1969 1962 1951 1946 1965 1986 2013 2018 -9999 -9999 -9999 -9999 -9999 -9999 -9999 -9999 -9999 -9999 -9999 -9999 -9999 -9999 -9999 -9999 -9999 -9999 -9999 -9999 -9999 -9999 -9999 -9999 -9999 -9999 -9999 -9999 -9999 -9999 -9999 -9999 -9999
